x y z
0.642019 1.20207 0.709157
0.647898 1.20199 0.724037
0.655122 1.21871 0.741156
0.663831 1.22807 0.74352
0.673301 1.23965 0.751601
0.681337 1.24614 0.762474
0.681441 1.26112 0.761728
0.694433 1.26087 0.761339
0.695369 1.26703 0.748798
0.712522 1.26155 0.742732
0.707665 1.25258 0.75786
0.722797 1.25902 0.748347
0.665859 1.20752 0.750289
0.681982 1.20762 0.763745
0.587284 1.17239 0.75446
0.587713 1.16011 0.777369
0.582238 1.15667 0.788649
0.578562 1.14022 0.814665
0.591631 1.13439 0.816657
0.603467 1.15747 0.795281
0.579857 1.16143 0.779131
0.646411 1.18944 0.706343
0.626731 1.2076 0.729794
0.623488 1.17361 0.50607
0.597444 1.18412 0.531667
0.571633 1.19222 0.603759
0.618736 1.16412 0.459082
0.603336 1.16918 0.4754
0.600799 1.17445 0.492423
0.60406 1.17975 0.506072
0.617831 1.18496 0.522418
0.615321 1.18004 0.475327
0.643197 1.1416 0.429118
0.650665 1.15863 0.442649
0.666219 1.16756 0.458601
0.690464 1.18763 0.484874
0.668422 1.17117 0.460296
0.657473 1.17558 0.481193
0.655665 1.18813 0.450774
0.621055 1.17116 0.471202
0.649324 1.13609 0.440439
0.598655 1.10462 0.408959
0.583894 1.11573 0.40454
0.598801 1.15499 0.405593
0.594607 1.17142 0.404425
0.626399 1.20336 0.395201
0.615608 1.06858 0.387909
0.631216 1.06093 0.412363
0.638893 1.04591 0.44973
0.651107 1.04267 0.463918
0.644251 1.04012 0.502226
0.651378 1.03289 0.491221
0.638346 1.02006 0.457513
0.610492 1.01817 0.465363
0.653474 1.06397 0.446661
0.626815 1.0338 0.454402
0.650477 1.06265 0.384901
0.657678 1.06016 0.407659
0.67707 1.04628 0.428997
0.684417 1.03968 0.446388
0.699175 1.02746 0.452112
0.666622 1.04386 0.403527
0.612767 1.05902 0.392648
0.611145 1.0498 0.432565
0.611582 1.04478 0.445626
0.604047 1.03788 0.463972
0.608391 1.02813 0.489859
0.611375 1.03336 0.502495
0.612556 1.02441 0.524731
0.619415 1.0175 0.537426
0.614489 1.02206 0.54856
0.620628 1.01198 0.57614
0.618422 1.00108 0.607212
0.613355 1.00968 0.62219
0.59711 1.00808 0.652014
0.597903 1.00944 0.664919
0.604614 1.00206 0.683399
0.612924 0.99596 0.691315
0.619703 1.00333 0.709774
0.608764 1.00296 0.70509
0.607619 1.01605 0.682323
0.601759 1.02128 0.695105
0.623305 1.00649 0.620323
0.615521 0.998197 0.640314
0.614679 0.991649 0.65706
0.617168 0.996378 0.668911
0.617854 1.02156 0.591119
0.632913 1.01084 0.566413
0.603506 1.04071 0.503234
0.576136 1.04522 0.507043
0.564867 1.05068 0.513303
0.571526 1.05785 0.503289
0.588174 1.03604 0.513437
0.590854 1.03677 0.518215
0.60087 1.03925 0.529103
0.605343 1.05376 0.470314
0.625252 1.05263 0.441621
0.619378 1.03744 0.407463
0.642785 1.00487 0.437316
0.598905 1.02586 0.320472
0.580878 1.02024 0.322588
0.567335 1.01888 0.312403
0.534315 1.00285 0.258758
0.622355 1.00551 0.328215
0.592329 1.01241 0.319535
0.579924 0.967074 0.319722
0.562405 0.963628 0.322007
0.599023 0.986268 0.320514
0.923282 1.02422 0.473998
0.927958 1.01526 0.486399
0.93041 1.0326 0.511976
0.921656 1.03646 0.526028
0.90794 1.05476 0.528433
0.773817 1.13493 0.543742
0.759369 1.15407 0.544596
0.747639 1.15434 0.547113
0.717514 1.19526 0.515202
0.705474 1.19037 0.515521
0.694975 1.17104 0.515676
0.67638 1.13887 0.503819
0.681128 1.18221 0.511442
0.744011 1.17789 0.538433
0.758523 1.18422 0.537434
0.774855 1.14831 0.554178
0.76518 1.14594 0.560871
0.93068 1.03489 0.474631
0.942594 1.03061 0.466582
0.957833 1.02901 0.461977
1.14395 1.12736 0.506607
1.10989 1.10475 0.496989
1.06914 1.1075 0.493417
0.970945 1.04165 0.585733
0.951909 1.00698 0.596518
0.93414 1.00828 0.59908
0.929825 1.01467 0.611946
0.937539 1.01853 0.580215
0.953229 1.00928 0.607805
0.964345 1.00829 0.616258
1.1 1.10779 0.484787
1.09949 1.1337 0.503867
1.08371 1.13158 0.505443
1.07016 1.12516 0.504856
1.13219 1.15721 0.490287
1.11206 1.17709 0.475322
1.08648 1.18207 0.462603
1.08299 1.16517 0.452496
1.09196 1.1588 0.445574
1.08469 1.15628 0.432696
1.06736 1.16835 0.446626
1.10931 1.135 0.471522
1.08479 1.14841 0.469807
1.1765 1.08216 0.564008
1.19491 1.04442 0.563135
1.18705 1.03448 0.569085
1.1807 1.01995 0.584338
1.16639 0.994432 0.601655
1.15709 0.98993 0.609546
1.15569 0.982623 0.629184
1.1362 0.97253 0.644914
1.12819 0.962409 0.658854
1.122 0.955047 0.67407
1.11421 0.945238 0.680321
1.10645 0.92412 0.685098
1.11023 0.928875 0.691112
1.13751 0.95206 0.680808
1.1103 0.964987 0.677545
1.14181 0.957879 0.680534
1.15026 0.975932 0.6712
1.14393 0.985981 0.657672
1.13972 0.99374 0.606721
1.12906 0.982793 0.621122
1.15038 0.974754 0.626886
1.13178 0.9678 0.643674
1.13669 0.984085 0.624565
1.19925 0.990461 0.605949
1.17788 0.991471 0.602691
1.18904 0.977039 0.610891
1.1697 0.954168 0.612564
1.16719 0.941981 0.606149
1.15787 0.949314 0.604283
1.17941 0.943148 0.615619
1.19317 0.94894 0.605023
1.20358 0.937214 0.601842
1.20282 1.01836 0.588868
1.18427 1.04051 0.581929
1.233 1.18422 0.511212
1.2098 1.16379 0.48743
1.28528 1.20357 0.498274
1.27569 1.23866 0.517173
1.3289 1.29721 0.548254
1.41127 1.38071 0.528141
1.42939 1.43642 0.511135
1.46866 1.43218 0.504816
1.48802 1.44937 0.507081
1.5867 1.44402 0.550655
1.63846 1.53146 0.483135
1.63124 1.53868 0.475091
1.48355 1.4555 0.475939
1.47364 1.48125 0.464156
1.49399 1.5028 0.44965
1.21547 1.15262 0.493695
1.23482 1.13256 0.513166
1.23346 1.11938 0.508638
1.23015 1.18527 0.459049
1.18803 1.14608 0.480134
1.19254 1.13475 0.484642
1.18471 1.11549 0.494465
1.20572 1.13619 0.474643
1.2256 1.22338 0.470267
1.26544 1.22412 0.471466
1.26924 1.24952 0.450737
1.1964 1.19217 0.482819
1.2007 1.19519 0.455319
1.19403 1.19831 0.436723
1.18822 1.18753 0.42993
1.1888 1.23357 0.470009
1.17671 1.23699 0.466679
1.30253 1.0623 0.655035
1.31969 1.06833 0.644543
1.32521 1.08662 0.638608
1.33799 1.08735 0.632946
1.33288 1.09322 0.643361
1.32702 1.08732 0.653354
1.31884 1.09246 0.672003
1.33118 1.08482 0.717757
1.32613 1.08494 0.729736
1.32203 1.08437 0.753376
1.33082 1.08395 0.76294
1.3152 1.08334 0.77186
1.31255 1.09733 0.691438
1.33307 1.1029 0.659711
1.32286 1.09843 0.668191
1.32171 1.10631 0.685442
1.31707 1.11628 0.707897
1.33375 1.1276 0.694267
1.31604 1.09624 0.686862
1.33613 1.11252 0.66941
1.32206 1.07368 0.634286
1.30954 1.07712 0.633722
1.31332 1.08612 0.633383
1.29254 1.07547 0.6511
1.28156 1.08984 0.640428
1.47011 1.00404 0.683676
1.55216 1.23453 0.696683
1.76376 1.28953 0.672188
1.84407 1.22566 0.71452
1.73328 1.22657 0.736745
1.63995 1.24879 0.733438
1.72199 1.2159 0.743824
1.7634 1.21106 0.703501
1.82222 1.28258 0.590624
1.84321 1.35644 0.480804
1.8519 1.47122 0.406518
1.83346 1.52668 0.373767
1.89616 1.7508 0.242888
1.88874 1.76864 0.230418
1.87968 1.77333 0.22236
1.87192 1.79462 0.21837
1.85795 1.79716 0.213538
1.84882 1.80626 0.208083
1.82375 1.82448 0.207476
1.81419 1.8303 0.203135
1.78623 1.81522 0.212071
1.70352 1.82175 0.21424
1.84874 1.82863 0.19691
1.84877 1.84161 0.196334
1.84747 1.85392 0.187541
1.83539 1.83042 0.190304
1.8153 1.79991 0.22481
1.82444 1.8129 0.226696
1.83684 1.81176 0.195824
1.83211 1.81164 0.181589
1.83966 1.82315 0.184162
1.80648 1.81783 0.194301
1.81411 1.82894 0.205193
1.86058 1.81056 0.210741
1.86377 1.76892 0.215196
1.84605 1.77936 0.194749
1.88537 1.78239 0.196486
1.87758 1.78299 0.184872
1.86978 1.78359 0.173258
1.86889 1.79754 0.172488
1.88628 1.82663 0.169703
1.90971 1.82455 0.164947
1.91808 1.79772 0.145811
1.93017 1.7829 0.13131
1.91593 1.80831 0.138085
1.92657 1.80064 0.120425
1.92883 1.81308 0.139281
1.88432 1.84477 0.164402
1.86613 1.79799 0.187126
1.86834 1.80977 0.187785
1.87966 1.78704 0.180058
1.87338 1.78889 0.167687
1.90472 1.77585 0.223094
1.90972 1.79079 0.194098
1.927 1.73992 0.230412
1.8784 1.7888 0.233431
1.86175 1.77294 0.233728
1.80208 1.45387 0.380095
1.79263 1.46281 0.374919
1.95644 1.47693 0.340077
1.97654 1.52477 0.329294
1.7421 1.40698 0.429841
1.76922 1.28126 0.519133
1.72953 1.23768 0.737118
1.78009 1.23552 0.725198
1.80067 1.2409 0.716437
1.79663 1.21494 0.722647
1.81072 1.26316 0.731435
1.82232 1.31126 0.743795
1.78354 1.21102 0.725684
1.77702 1.20543 0.743745
1.77681 1.19767 0.75887
1.76642 1.20811 0.758049
1.77731 1.19926 0.730021
1.78024 1.20472 0.727826
1.7631 1.21014 0.728703
1.80563 1.24166 0.704445
1.7901 1.24034 0.708563
1.79095 1.25395 0.669896
1.80424 1.28002 0.597595
1.77388 1.22298 0.725442
1.75775 1.21693 0.730637
1.7678 1.20032 0.735454
1.76413 1.24433 0.71762
1.75315 1.19994 0.737806
1.75114 1.24011 0.744883
1.78371 1.24758 0.730635
1.67736 1.22484 0.718073
1.64649 1.26614 0.740936
1.62164 1.30245 0.740475
1.65941 1.42415 0.728456
1.68278 1.43931 0.72557
1.6803 1.49303 0.730423
1.70202 1.50516 0.732856
1.71039 1.49624 0.698052
1.68231 1.4254 0.730217
1.65233 1.28472 0.74877
1.61368 1.29193 0.745712
1.62215 1.30054 0.73681
1.61801 1.29199 0.726518
1.61479 1.28437 0.716494
1.61061 1.30475 0.700897
1.62294 1.31042 0.690654
1.61593 1.31562 0.674911
1.62029 1.31429 0.660621
1.63223 1.31715 0.676782
1.597 1.30961 0.69016
1.60268 1.2914 0.716174
1.61071 1.30362 0.723791
1.73538 1.22872 0.773623
1.70091 1.23512 0.803409
1.70609 1.24166 0.826977
1.76401 1.21652 0.687483
1.76224 1.21092 0.675885
1.75226 1.20288 0.666302
1.75552 1.21061 0.652675
1.76584 1.19574 0.626288
1.82967 1.15427 0.598584
1.84443 1.14061 0.577696
1.86522 1.12079 0.545694
1.87489 1.11966 0.529379
1.87955 1.11028 0.520097
1.91549 1.06566 0.487326
1.92062 1.057 0.479107
1.92742 1.0478 0.471029
1.93208 1.03843 0.461725
1.94378 1.04776 0.448446
1.94676 1.03476 0.444173
1.94378 1.04776 0.4399
1.95356 1.05456 0.441321
1.94135 1.05493 0.43435
1.94046 1.03394 0.452855
1.95188 1.01181 0.439381
1.92409 1.05047 0.45099
1.9335 1.06337 0.466673
1.93896 1.07899 0.449291
1.9254 1.11009 0.416769
1.92564 1.07152 0.475007
1.92703 1.07498 0.473913
1.85777 1.06801 0.478778
1.86765 1.10753 0.54192
1.85124 1.12187 0.534577
1.84436 1.12977 0.557411
1.83259 1.1293 0.543801
1.82448 1.14428 0.579686
1.82863 1.12883 0.567679
1.81322 1.14596 0.569912
1.77042 1.19857 0.663993
1.76779 1.22744 0.671375
1.75955 1.23806 0.687728
1.58069 1.28725 0.694187
1.50043 1.3039 0.681151
1.50199 1.32527 0.706253
1.49462 1.32785 0.71536
1.48802 1.33043 0.725046
1.4794 1.33937 0.735143
1.4438 1.35061 0.742197
1.44402 1.37059 0.742994
1.40333 1.37549 0.744047
1.469 1.33723 0.748417
1.47971 1.34092 0.717983
1.47433 1.36535 0.730572
1.49447 1.39825 0.747164
1.4818 1.28666 0.714612
1.48371 1.31723 0.695943
1.54025 1.25709 0.687833
1.56141 1.27359 0.679842
1.55233 1.26562 0.672779
1.47738 1.02008 0.676524
1.5503 1.04246 0.628756
1.54954 1.06489 0.633785
1.56679 1.0682 0.637752
1.58321 1.08753 0.643441
1.58147 1.10423 0.649944
1.58288 1.09126 0.655035
1.59317 1.11471 0.663592
1.64897 1.16463 0.69941
1.65623 1.19779 0.701358
1.5705 1.09796 0.639115
1.56387 1.08361 0.638339
1.51967 1.03778 0.662314
1.51329 1.02778 0.66051
1.25671 0.938671 0.670222
1.24908 0.921294 0.661228
1.27085 0.868385 0.622655
1.34823 0.743073 0.539773
1.35741 0.732078 0.527288
1.3743 0.674095 0.498273
1.38626 0.50018 0.40024
1.4598 0.581805 0.351968
1.51503 0.392984 0.251286
1.57854 0.33993 0.211092
1.57717 0.307677 0.187473
1.59317 0.28952 0.169742
1.60633 0.291664 0.152244
1.62012 0.281399 0.11948
1.6338 0.306653 0.123501
1.64431 0.32803 0.120582
1.63809 0.31671 0.122046
1.65881 0.3375 0.134786
1.6548 0.365928 0.13887
1.63054 0.369944 0.143384
1.61318 0.391816 0.1413
1.6222 0.404253 0.131918
1.61266 0.415285 0.116805
1.61287 0.436134 0.0838467
1.5135 0.496488 -0.00772996
1.5806 0.37928 0.138807
1.64903 0.383639 0.142623
1.64288 0.399485 0.142463
1.65205 0.419227 0.14563
1.64717 0.358035 0.14789
1.63218 0.367547 0.157101
1.62259 0.384497 0.188562
1.61959 0.389879 0.200009
1.61177 0.414091 0.211697
1.61039 0.428736 0.22022
1.611 0.399325 0.220329
1.61006 0.372108 0.1889
1.60683 0.377288 0.200376
1.64818 0.377245 0.163856
1.66556 0.359449 0.127808
1.67551 0.395994 0.11494
1.67538 0.407899 0.109719
1.6754 0.393246 0.103292
1.70803 0.422386 0.0890739
1.75429 0.443576 0.0856678
1.79326 0.444074 0.0872829
1.74328 0.477827 0.0869023
1.64526 0.376822 0.119442
1.64766 0.390595 0.120166
1.66912 0.327545 0.130742
1.65596 0.314864 0.119349
1.69453 0.33338 0.0863996
1.71863 0.322599 0.033633
1.72747 0.325371 0.0245192
1.75303 0.322366 -0.00610374
1.75079 0.329799 -0.0189385
1.74924 0.346608 -0.0296652
1.76335 0.352658 -0.0369568
1.77771 0.341867 -0.0431457
1.78373 0.357874 -0.0508144
1.7414 0.337104 -0.0362445
1.73529 0.307312 0.0208008
1.72683 0.301465 0.00987988
1.71895 0.319007 0.0159978
1.74611 0.322195 -0.0158734
1.73181 0.310737 -0.026324
1.68724 0.33164 0.0757808
1.67756 0.320285 0.0114899
1.66823 0.31721 -0.0168557
1.58783 0.279582 0.155719
1.58205 0.288131 0.143493
1.58907 0.280815 0.13536
1.58807 0.294319 0.131804
1.56813 0.285522 0.128808
1.56567 0.258034 0.133536
1.54298 0.238522 0.135653
1.51644 0.253592 0.148216
1.51876 0.273315 0.167956
1.49032 0.283864 0.19844
1.50631 0.249288 0.158401
1.50598 0.23302 0.166098
1.48881 0.229935 0.173621
1.52052 0.238892 0.159832
1.49047 0.253535 0.204759
1.58907 0.306272 0.132174
1.57382 0.313634 0.133668
1.55757 0.336969 0.152307
1.54358 0.337204 0.152714
1.57653 0.331577 0.157558
1.54993 0.305669 0.127192
1.58528 0.306809 0.14421
1.5668 0.31936 0.12812
1.58793 0.30492 0.182929
1.61209 0.270882 0.151914
1.60637 0.35772 0.169644
1.5889 0.404983 0.0552503
1.45291 0.344265 0.206031
1.44024 0.343147 0.194749
1.43852 0.336831 0.183517
1.43074 0.318377 0.166936
1.41552 0.308256 0.152973
1.35566 0.259327 0.173525
1.2718 0.189273 0.14895
1.4209 0.301144 0.138498
1.41681 0.294808 0.12553
1.4274 0.289704 0.142223
1.43707 0.279426 0.132745
1.42338 0.282832 0.123267
1.4172 0.268427 0.116688
1.41874 0.281897 0.108194
1.41072 0.258242 0.0934631
1.40526 0.280247 0.107816
1.41359 0.272852 0.134853
1.39949 0.274207 0.125461
1.39261 0.261624 0.118361
1.38845 0.24115 0.102886
1.41853 0.320264 0.15526
1.44038 0.346505 0.166111
1.42989 0.342597 0.156126
1.42513 0.330138 0.15752
1.41891 0.316403 0.147689
1.40359 0.309454 0.136872
1.40024 0.293862 0.113857
1.39399 0.285139 0.101989
1.38303 0.284966 0.0890014
1.38263 0.284196 0.0750282
1.35916 0.288731 0.0508493
1.35965 0.277414 0.0355956
1.38483 0.272278 0.0603956
1.38002 0.259898 0.0859725
1.41001 0.288923 0.0769044
1.40675 0.298842 0.0675766
1.43642 0.325374 0.144341
1.43266 0.314348 0.141464
1.46615 0.301406 0.138789
1.40606 0.351939 0.132088
1.41373 0.333857 0.157101
1.40884 0.328674 0.146225
1.39943 0.335219 0.135064
1.38724 0.332453 0.147927
1.40625 0.344382 0.155593
1.44568 0.345114 0.195255
1.46886 0.350332 0.18044
1.48165 0.348932 0.178567
1.48337 0.348723 0.162661
1.46395 0.353396 0.155094
1.46843 0.596155 0.334779
1.46122 0.610307 0.336683
1.49305 0.611279 0.348598
1.50206 0.592165 0.365402
1.49019 0.630251 0.383963
1.43261 0.655705 0.416791
1.4323 0.673817 0.454684
1.40368 0.692006 0.473952
1.51579 0.594914 0.365281
1.4875 0.653262 0.333378
1.51005 0.599137 0.336785
1.47505 0.601551 0.324973
1.48354 0.591785 0.326173
1.5005 0.582479 0.31196
1.50054 0.571583 0.291704
1.36528 0.680102 0.493114
1.33691 0.694968 0.458717
1.30784 0.681618 0.442206
1.25303 0.703097 0.372814
1.31235 0.737975 0.410674
1.35222 0.662161 0.49915
1.34877 0.693218 0.483744
1.32222 0.661979 0.43993
1.29792 0.670632 0.429046
1.27155 0.676702 0.418624
1.25672 0.677456 0.412651
1.25365 0.675013 0.398175
1.23995 0.679208 0.378918
1.23155 0.684483 0.36271
1.22577 0.702577 0.348042
1.23146 0.715576 0.336967
1.22812 0.729874 0.324907
1.24117 0.756991 0.311363
1.24096 0.769813 0.305746
1.24279 0.797032 0.299435
1.25117 0.810381 0.296697
1.22517 0.77536 0.299125
1.22797 0.786919 0.289986
1.21497 0.77353 0.310293
1.25161 0.72884 0.306277
1.21376 0.743887 0.309992
1.23851 0.689421 0.339211
1.22875 0.675997 0.362662
1.21721 0.681808 0.371691
1.23483 0.669727 0.378121
1.24108 0.662304 0.343454
1.24966 0.684495 0.40598
1.24196 0.685635 0.395564
1.2481 0.694467 0.3923
1.22658 0.667026 0.415266
1.26276 0.669112 0.402337
1.2764 0.688551 0.428969
1.26677 0.683316 0.43767
1.26665 0.695024 0.423309
1.33275 0.683163 0.48563
1.30661 0.669319 0.480637
1.36336 0.745317 0.526878
1.38202 0.738169 0.526067
1.33396 0.797411 0.53656
1.36386 0.748447 0.50916
1.39201 0.740023 0.496484
1.27458 0.857962 0.61584
1.2855 0.831099 0.615463
1.28203 0.805066 0.609196
1.25112 0.751263 0.598298
1.31543 0.824889 0.610323
1.26248 0.827244 0.599138
1.19717 0.877249 0.64494
1.19063 0.860749 0.633717
1.17014 0.827868 0.605382
1.17661 0.809119 0.593736
1.19052 0.787362 0.576591
1.19746 0.745633 0.54144
1.15882 0.838114 0.625006
1.18216 0.865954 0.624179
1.28812 0.948801 0.670442
1.28144 0.921636 0.669198
1.26352 0.920241 0.669994
1.25895 0.907302 0.667208
1.26789 0.882901 0.666414
1.28796 0.894006 0.668126
1.26253 0.876944 0.672953
1.26713 0.888605 0.669501
1.3379 0.854439 0.649895
1.31895 0.890504 0.630786
1.30294 0.917068 0.619522
1.19367 0.844058 0.631354
1.17637 0.849352 0.622824
1.26396 0.923013 0.663074
1.28587 0.934958 0.652767
1.23715 0.881264 0.668831
1.29218 0.916816 0.671536
1.28777 0.903931 0.684786
1.29545 0.892989 0.698291
1.30058 0.900178 0.696862
1.31575 0.929601 0.65765
1.19615 0.771565 0.673713
1.35807 0.806237 0.442984
1.46469 0.839165 0.433406
1.74125 0.904178 0.392698
1.75748 0.890449 0.372968
1.84979 1.06072 0.350362
1.86241 1.04585 0.342582
1.91802 1.12893 0.345003
1.92777 1.12081 0.347841
1.92254 1.159 0.341899
1.90438 1.17441 0.344837
1.87989 1.1971 0.321033
1.83906 1.21963 0.305982
1.81129 1.24094 0.293985
1.66085 1.24343 0.139013
1.65553 1.28288 0.129208
1.63796 1.25764 0.149729
1.81133 1.25427 0.300857
1.82712 1.20897 0.293995
1.83607 1.24102 0.310178
1.83413 1.26053 0.314112
1.82032 1.25768 0.312017
1.86475 1.21871 0.311683
1.84659 1.2436 0.308203
1.88202 1.18712 0.358239
1.87618 1.16834 0.347899
1.86059 1.18334 0.320384
1.93338 1.16083 0.342267
1.94569 1.17103 0.342802
1.93754 1.18591 0.356803
1.92468 1.21414 0.389409
1.92135 1.23122 0.394005
1.8966 1.29305 0.415537
1.91036 1.30281 0.421805
1.88455 1.30039 0.420649
1.95855 1.17788 0.334035
1.97317 1.17491 0.335559
1.98231 1.1899 0.339522
1.93653 1.1511 0.353245
1.93777 1.1616 0.365257
1.9318 1.15425 0.375572
1.91795 1.16788 0.407066
1.90796 1.15771 0.404964
1.95044 1.15396 0.367714
1.96289 1.1479 0.37349
1.95304 1.12564 0.332422
1.97061 1.11943 0.328702
1.98574 1.11149 0.323057
2.00395 1.10948 0.318019
2.01535 1.10274 0.292216
2.0271 1.09789 0.267271
2.03425 1.10003 0.256631
2.03966 1.09674 0.238716
2.01742 1.09608 0.263038
2.02549 1.09595 0.252845
2.01691 1.09567 0.270387
1.98987 1.10423 0.309406
1.97039 1.14035 0.326821
1.98952 1.14592 0.325064
2.00702 1.14809 0.321466
2.01719 1.15297 0.311574
1.94678 1.11594 0.329873
1.87492 1.08826 0.343014
1.90451 1.08495 0.339328
1.7732 0.877176 0.339838
1.75853 0.905211 0.357748
1.75964 0.907236 0.333859
1.76134 0.903665 0.31939
1.76619 0.897662 0.296664
1.47855 0.840817 0.411471
1.48571 0.845843 0.39574
1.4731 0.841344 0.392235
1.1794 0.737884 0.684007
1.19661 0.772429 0.694519
1.2022 0.787186 0.697151
1.21809 0.781138 0.696937
1.22942 0.778821 0.689043
1.22775 0.768017 0.696078
1.23737 0.791063 0.712703
1.23755 0.770761 0.718072
1.23038 0.761375 0.720198
1.21391 0.726772 0.749104
1.20413 0.717424 0.752687
1.23431 0.770812 0.728721
1.23328 0.783239 0.738746
1.24739 0.805802 0.721779
1.24391 0.782972 0.679209
1.21371 0.770308 0.70264
1.21549 0.789209 0.693235
1.19125 0.764526 0.703676
1.19165 0.749676 0.711942
1.1973 0.760524 0.716345
1.20639 0.734152 0.718785
1.21824 0.761987 0.71572
1.20447 0.782996 0.716327
1.21677 0.762174 0.714953
1.21013 0.778454 0.688436
1.18867 0.746213 0.690385
1.17693 0.755063 0.709351
1.18789 0.753176 0.713841
1.21309 0.834782 0.622592
1.22861 0.871622 0.62114
1.252 0.895186 0.607222
1.42989 0.976904 0.553515
1.44767 0.988002 0.554794
1.45959 0.990617 0.550299
1.47001 0.989438 0.544469
1.46931 0.979661 0.553008
1.47263 1.00147 0.57183
1.47887 1.01691 0.58291
1.51036 1.01456 0.588125
1.51931 1.00655 0.615612
1.51584 1.00168 0.627154
1.50897 1.0086 0.651256
1.47495 0.998314 0.567015
1.49081 0.97543 0.572003
1.48899 0.984571 0.583755
1.46122 0.9997 0.569193
1.46043 1.02238 0.554096
1.45899 1.04118 0.556402
1.43782 1.02166 0.559777
1.45389 0.997865 0.539029
1.44844 0.954142 0.559661
1.47491 0.946164 0.571318
1.41911 1.00262 0.542454
1.4462 1.02073 0.522895
1.23239 0.885943 0.618775
1.24548 0.908155 0.610754
1.21553 0.833125 0.608906
1.2229 0.834692 0.581936
1.21144 0.822096 0.603375
1.13072 0.850744 0.679254
1.06553 0.552298 0.559818
1.10076 0.383174 0.490884
1.09118 0.27889 0.445839
1.12027 0.277314 0.435242
1.08615 0.251188 0.436679
1.07173 0.259861 0.439139
1.1033 0.262775 0.434768
1.12528 0.245824 0.431066
1.13552 0.221067 0.422926
1.09854 0.211347 0.405535
1.09615 0.187219 0.411629
1.06702 0.155661 0.41377
1.07934 0.167021 0.410887
1.06124 0.148001 0.404592
1.06786 0.158934 0.398884
1.05637 0.149543 0.38702
1.04511 0.153066 0.372124
1.01237 0.128393 0.372358
1.00368 0.109826 0.38279
1.01028 0.0940829 0.393214
0.993376 0.0874943 0.401632
0.981987 0.0907162 0.427007
0.981948 0.0932985 0.444821
0.970603 0.0896234 0.460877
0.973826 0.0825955 0.487788
0.977494 0.0955849 0.441571
0.998853 0.133102 0.367873
0.985029 0.140331 0.364317
0.974891 0.134188 0.366187
0.964536 0.121964 0.376403
0.96985 0.103542 0.370711
0.955199 0.108034 0.37919
0.983605 0.13747 0.392151
0.977241 0.118748 0.382934
1.00777 0.159785 0.351904
1.0646 0.147428 0.389832
1.05818 0.134843 0.380377
1.04682 0.11657 0.369735
1.04553 0.106672 0.361408
1.04766 0.0890033 0.35871
1.05423 0.0711769 0.358771
1.0379 0.0750899 0.35836
1.04404 0.130581 0.370079
1.0528 0.156538 0.378051
1.05676 0.185298 0.377027
1.10278 0.19086 0.384032
1.14237 0.194151 0.409158
1.17273 0.196784 0.403462
1.12628 0.194147 0.408297
1.12654 0.166305 0.390584
1.11878 0.153245 0.380936
1.11066 0.160323 0.378693
1.09452 0.160052 0.359602
1.09836 0.145451 0.351788
1.08611 0.143894 0.345191
1.07578 0.143797 0.335739
1.09564 0.126242 0.314443
1.1107 0.126685 0.299817
1.12589 0.126717 0.290149
1.1338 0.124023 0.254105
1.12573 0.122731 0.209853
1.12506 0.137542 0.196429
1.11883 0.118902 0.273145
1.08584 0.125864 0.292256
1.11455 0.129921 0.276349
1.08816 0.149056 0.298176
1.05595 0.141453 0.334692
1.04446 0.157782 0.31506
1.04154 0.13844 0.295027
1.02711 0.149765 0.309182
1.08907 0.159733 0.335124
1.1158 0.142304 0.316386
1.12576 0.141703 0.299054
1.07566 0.158274 0.358137
1.08485 0.158917 0.346301
1.08353 0.160503 0.330436
1.08099 0.161663 0.302575
1.08599 0.163645 0.291848
1.08371 0.154428 0.316722
1.09661 0.179116 0.340597
1.11093 0.139835 0.37185
1.11614 0.124069 0.362616
1.12347 0.150914 0.359518
1.12039 0.135713 0.355584
1.13212 0.133572 0.354208
1.13013 0.126897 0.363979
1.14007 0.13274 0.380323
1.1526 0.135632 0.382233
1.16473 0.170074 0.410207
1.17409 0.166274 0.414557
1.18835 0.172889 0.423322
1.12879 0.140037 0.382809
1.14231 0.126833 0.349752
1.16817 0.119647 0.352663
1.19726 0.13594 0.346011
1.16097 0.138078 0.357116
1.12069 0.123344 0.351593
1.13543 0.154408 0.355822
1.15725 0.16409 0.374002
1.12567 0.11071 0.355228
1.12102 0.0895897 0.339065
1.12718 0.0823417 0.333543
1.13942 0.0771175 0.329191
1.14927 0.0837635 0.338343
1.14582 0.0661207 0.339247
1.13806 0.0702391 0.312613
1.11705 0.0833302 0.323932
1.11901 0.0900547 0.314188
1.141 0.114289 0.34289
1.14307 0.118013 0.324373
1.15612 0.111691 0.310603
1.09391 0.118344 0.352697
1.11694 0.147741 0.363467
1.14128 0.149184 0.37987
1.12636 0.113044 0.353787
1.1325 0.105998 0.346268
1.1231 0.0974681 0.329539
1.12993 0.0993862 0.316325
1.17224 0.117919 0.379735
1.11853 0.181937 0.399363
1.09575 0.174439 0.398346
1.08758 0.162925 0.385631
1.10141 0.171066 0.381534
1.10418 0.162704 0.38935
1.16703 0.268411 0.396029
1.1609 0.272222 0.381751
1.11676 0.300011 0.395167
1.00053 0.255693 0.454699
0.987038 0.268988 0.456152
0.952467 0.271479 0.461009
0.941261 0.289136 0.462929
0.946563 0.303014 0.460859
0.931617 0.311749 0.455926
0.932577 0.343266 0.473297
0.944626 0.34567 0.48001
0.917304 0.372098 0.490745
0.917982 0.326919 0.473617
0.926251 0.258354 0.470153
0.913593 0.232457 0.473337
0.923089 0.221521 0.480135
0.934443 0.223661 0.488042
0.94232 0.216077 0.479418
0.896911 0.231759 0.476536
0.90185 0.231231 0.478777
0.906691 0.236015 0.482086
0.914602 0.220617 0.492102
0.924248 0.217562 0.498554
0.983246 0.296115 0.461959
1.01233 0.326359 0.471362
1.01374 0.317292 0.479096
1.01028 0.343635 0.498669
1.01778 0.304526 0.485857
1.10368 0.242308 0.456621
1.11735 0.234755 0.492359
1.12457 0.23724 0.50866
1.1368 0.247671 0.537477
1.10483 0.228288 0.484246
1.08054 0.233559 0.444279
1.08573 0.245459 0.444908
1.08251 0.191607 0.442533
1.09664 0.164013 0.442849
1.08978 0.202356 0.441765
1.10274 0.209654 0.461731
1.08782 0.188785 0.465969
1.0572 0.217714 0.459391
1.17576 0.337324 0.402628
1.09996 0.303388 0.435506
1.09643 0.290911 0.434556
1.11553 0.368452 0.439314
1.13894 0.371237 0.478092
1.15798 0.352696 0.486927
1.21122 0.360203 0.481988
1.14351 0.294333 0.538168
1.06958 0.581505 0.547386
1.10719 0.552641 0.528589
1.1307 0.54891 0.493987
1.12186 0.533437 0.512559
1.07094 0.628812 0.531256
1.11695 0.880236 0.666389
1.12251 0.889971 0.659806
1.12543 0.877469 0.648664
1.13231 0.867172 0.644713
1.12532 0.883189 0.63307
1.11666 0.87811 0.624806
1.1174 0.856875 0.609823
1.12135 0.868609 0.601354
1.11562 0.859155 0.594516
1.12566 0.905434 0.628466
1.13214 0.874444 0.661433
0.848357 0.986109 0.625025
0.880969 1.2404 0.607076
0.915543 1.41806 0.588013
0.895998 1.50417 0.570569
0.959928 1.83207 0.48445
0.993778 1.91722 0.468567
0.99938 1.94034 0.460866
1.00657 1.9569 0.454941
1.01716 1.96459 0.447616
0.997528 2.11001 0.338268
0.944025 2.14937 0.290184
0.972931 2.15842 0.234942
0.968942 2.16199 0.198332
0.954093 2.1589 0.181041
0.939336 2.15944 0.0720367
0.930296 2.15451 0.0323512
0.930992 2.13345 0.0069524
1.0123 2.08991 -0.0158061
1.01327 2.04739 -0.0622879
0.94591 1.9167 -0.111352
0.916658 1.89568 -0.119795
0.89906 1.88105 -0.101979
0.888401 1.8675 -0.0774292
0.873182 1.84222 -0.0605367
0.858956 1.84433 -0.0497128
0.843381 1.83134 -0.0551686
0.759212 1.65292 0.0041445
0.865318 1.81088 -0.0538351
0.878124 1.87946 -0.102355
0.860702 1.89155 -0.096513
0.820923 1.91285 -0.0668429
0.885582 1.88496 -0.0891686
0.913064 1.90893 -0.122507
0.913942 1.89359 -0.126967
0.913222 1.90702 -0.130878
0.917383 1.89007 -0.135276
0.903769 1.86944 -0.143353
0.885735 1.8611 -0.150156
0.861975 1.83254 -0.142193
0.849333 1.79144 -0.142328
0.835468 1.7923 -0.140598
0.878332 1.81061 -0.136211
0.899115 1.88195 -0.1502
0.958519 1.85509 -0.183044
0.905524 1.89075 -0.131027
0.897402 1.8954 -0.134714
0.868812 1.89967 -0.116815
0.863688 1.91109 -0.125084
0.886082 1.8919 -0.129186
0.868854 1.87665 -0.136008
0.855691 1.88606 -0.14776
0.857139 1.89643 -0.158504
0.84463 1.88447 -0.176549
0.847005 1.87139 -0.194074
0.859349 1.90783 -0.169505
0.872135 1.86283 -0.150089
0.885965 1.90319 -0.118425
0.913507 1.88274 -0.0972907
0.925813 1.9384 -0.106329
0.888399 1.92821 -0.0901931
0.898536 1.97699 -0.0781837
0.927259 2.15504 0.0176712
0.922384 2.15456 0.00139235
0.914993 2.14268 0.00196234
0.897485 2.12033 0.00787691
0.889649 2.10676 0.00466764
0.880676 2.09604 0.00545659
0.868299 2.0792 -0.0116433
0.902698 2.06607 -0.0577423
0.872014 2.07925 -0.00371246
0.883438 2.06444 -0.0107879
0.874087 2.05694 -0.0198111
0.875698 2.04556 -0.0397321
0.864322 2.06593 -0.00811324
0.897191 2.08605 0.000214007
0.894367 2.06392 0.0154193
0.894187 2.14867 -0.00139335
0.919391 2.12349 0.00161883
0.912541 2.11069 -0.00510667
0.92348 2.10564 -0.014041
0.904439 2.14949 -0.00422227
0.927908 2.14986 -0.0172472
0.932566 2.15059 -0.00109332
0.941009 2.15821 0.0411065
0.902003 2.14372 0.011615
0.919006 2.11414 0.042067
0.908641 2.10167 0.0321661
0.898627 2.09228 0.0294213
0.88811 2.07632 0.0148975
0.868646 2.064 -0.00431728
0.867036 2.04051 -0.0259878
0.879266 2.08751 0.0160626
0.901064 2.11025 0.0299428
0.893144 2.10936 0.0149275
0.913566 2.12668 0.0260683
0.735537 2.1201 0.1171
0.749091 2.11165 0.116191
0.941342 2.12473 0.046912
0.966321 2.17678 0.185119
1.01226 2.21831 0.131377
0.855553 2.15422 0.15816
0.829733 2.17021 0.0358753
0.820783 2.15399 0.0259812
0.789213 2.13976 0.00402709
0.83184 2.17565 0.00746879
0.835497 2.17436 -0.0111314
0.82453 2.17244 -0.0224854
0.80912 2.17419 0.018898
0.829953 2.1362 0.0878096
0.778628 2.12421 0.202252
0.808701 2.23089 0.264257
0.829174 2.19909 0.288635
0.823842 2.24118 0.316931
0.798705 2.32006 0.371212
0.805797 2.30577 0.379536
0.81325 2.33602 0.401284
0.805648 2.30781 0.408066
0.832658 2.32281 0.410596
0.824059 2.28889 0.409992
0.716192 2.09513 0.420379
0.695665 2.08396 0.414928
0.692703 2.06833 0.416657
0.690881 2.03974 0.421151
0.687639 2.02214 0.423138
0.71052 2.07031 0.409078
0.857772 2.36739 0.452281
0.85472 2.38703 0.470559
0.820919 2.35305 0.414714
0.818741 2.33837 0.416926
0.778117 2.35256 0.382177
0.847345 2.28709 0.304123
0.787163 2.32216 0.354567
0.782053 2.32989 0.368818
0.777074 2.33796 0.382925
0.783257 2.34627 0.397649
0.775126 2.35261 0.415944
0.721035 2.37191 0.455964
0.719575 2.38446 0.489676
0.719379 2.39428 0.499647
0.709292 2.42095 0.518168
0.717007 2.43225 0.521154
0.710082 2.46197 0.530768
0.689415 2.46546 0.53208
0.6744 2.46408 0.52673
0.652367 2.47642 0.550964
0.649198 2.48637 0.564378
0.640584 2.5017 0.588686
0.707056 2.47593 0.535368
0.684406 2.39512 0.532514
0.678648 2.41025 0.556574
0.662149 2.39233 0.570376
0.748111 2.3913 0.50221
0.759 2.39848 0.516029
0.715862 2.38139 0.488203
0.77078 2.38597 0.420858
0.771974 2.39969 0.423345
0.776149 2.41286 0.425643
0.766635 2.43114 0.429663
0.751453 2.35645 0.483833
0.791995 2.35441 0.413692
0.79831 2.36113 0.433664
0.792784 2.36072 0.45079
0.787353 2.35971 0.467921
0.781957 2.35713 0.49425
0.795596 2.36709 0.441749
0.792544 2.37322 0.45396
0.780508 2.37476 0.473499
0.667759 2.29864 0.403609
0.659573 2.28795 0.407441
0.782488 2.31443 0.399098
0.780435 2.32026 0.410534
0.780343 2.31342 0.423881
0.775373 2.30395 0.439588
0.765671 2.31857 0.465146
0.778253 2.31211 0.480669
0.770642 2.28785 0.468
0.783163 2.32691 0.449399
0.774419 2.34686 0.357959
0.765195 2.3573 0.352403
0.805656 2.30734 0.346799
1.0481 1.9894 0.44242
1.07182 2.01622 0.426962
1.08305 2.02353 0.420216
1.04803 2.03718 0.393638
1.04864 2.02434 0.440435
1.06252 2.03224 0.439533
1.03288 2.01863 0.440789
1.03913 1.96396 0.433735
1.05082 1.97318 0.425512
1.09066 1.96847 0.413078
1.08974 1.99839 0.415081
1.05665 1.94654 0.42992
0.992945 1.9313 0.454529
0.982408 1.95089 0.465934
0.979657 1.96645 0.463369
0.991233 1.9693 0.464718
0.993617 1.97172 0.478301
0.9983 1.98624 0.489625
0.97872 1.95954 0.515467
0.943613 1.97191 0.557302
0.916623 1.98485 0.585326
0.919173 1.98969 0.597115
0.917795 1.99553 0.610865
0.903744 1.98774 0.621005
0.893471 1.97398 0.657133
0.900449 1.95533 0.697489
0.971561 1.97352 0.55677
0.986351 1.97456 0.546562
0.955814 1.94522 0.563524
0.922355 1.9588 0.575661
0.98058 1.9467 0.527943
0.982111 1.93516 0.535724
1.00518 1.9974 0.494531
0.993904 2.0249 0.506386
0.995998 2.04115 0.513841
1.00432 2.05073 0.519763
1.00947 2.06262 0.525065
1.0097 2.08134 0.536617
0.995132 2.101 0.541723
1.00428 2.11143 0.539801
0.946797 2.14507 0.556223
1.02116 2.08497 0.541575
1.00859 2.06354 0.533127
1.0138 2.04903 0.52992
0.995765 2.01769 0.509652
1.00829 2.01677 0.519564
1.02463 1.95427 0.494266
1.03538 1.96566 0.505021
0.988339 1.97612 0.484715
1.02133 1.93095 0.46698
1.03127 1.91758 0.478047
1.00364 1.90959 0.466494
0.999733 1.89213 0.477491
0.977094 1.83846 0.51632
0.968832 1.8293 0.52651
0.955431 1.82824 0.533164
0.938811 1.81426 0.553862
0.990701 1.86587 0.481124
1.01185 1.88647 0.486275
1.02509 1.94457 0.450619
1.03639 1.94476 0.446575
1.06146 1.94894 0.437476
1.07424 1.94069 0.429888
1.08712 1.95196 0.41307
1.10151 1.95523 0.410355
1.10092 1.96032 0.396258
1.08687 1.93638 0.423036
1.09923 1.92451 0.414838
1.05018 1.93111 0.434222
1.06861 1.92475 0.438684
1.07942 1.93415 0.431567
1.09247 1.92774 0.420957
1.03283 1.95812 0.433718
1.05108 1.97629 0.422732
1.07562 1.97742 0.41153
1.0493 2.00676 0.386997
0.956026 1.9336 0.447043
0.946697 1.90236 0.441944
0.907674 1.89555 0.436399
0.910405 1.90395 0.425534
0.908232 1.88834 0.41322
0.899975 1.8795 0.406168
0.899389 1.86575 0.391658
0.88984 1.8555 0.377383
0.889461 1.87474 0.400186
0.895863 1.87622 0.399645
0.930096 1.87735 0.394188
0.929185 1.89702 0.401862
0.896572 1.89774 0.420429
0.934344 1.86963 0.442904
0.949903 1.87153 0.44161
0.922091 1.87748 0.442297
0.874546 1.86593 0.444993
0.970262 1.90689 0.436663
0.971465 1.96291 0.448397
0.95302 1.96324 0.427333
0.932245 1.96593 0.428795
0.909526 1.93878 0.406201
0.891703 1.94494 0.403892
0.876738 1.95452 0.401019
0.879507 1.98096 0.39628
0.873478 1.99328 0.393457
0.884335 1.94854 0.392544
0.925235 1.92125 0.4204
0.936327 1.99459 0.430515
0.944059 2.02461 0.430041
0.946819 2.03689 0.426796
0.925094 1.97153 0.436641
0.874276 1.96106 0.44008
0.96978 1.95405 0.449279
0.952775 1.9722 0.446767
0.965354 1.99424 0.434933
0.949436 2.01665 0.416677
0.978839 1.96251 0.439163
0.98089 1.98831 0.440788
0.956735 1.95373 0.444207
0.956983 1.95444 0.430227
0.948817 1.95094 0.428285
0.944721 1.96195 0.437557
0.941326 1.8344 0.481358
0.934418 1.84869 0.455899
0.946281 1.85375 0.441947
0.9709 1.86177 0.419912
0.970024 1.8732 0.376397
0.941452 1.86866 0.475269
0.954208 1.87726 0.468043
0.951437 1.89107 0.451142
0.942069 1.91874 0.431866
1.06989 1.4712 0.552753
1.09029 1.42983 0.539473
0.998464 1.51548 0.592356
1.1093 1.56309 0.543892
1.12087 1.58344 0.535113
1.11574 1.63498 0.509012
1.09074 1.68376 0.504475
1.10282 1.69602 0.499204
1.09553 1.71663 0.496714
1.09012 1.72939 0.498657
1.08448 1.74641 0.497028
1.0645 1.7609 0.493054
1.08453 1.70493 0.49502
1.07847 1.71828 0.491867
1.07295 1.73262 0.487426
1.12726 1.65186 0.498465
1.14975 1.65126 0.483525
0.98512 1.53699 0.582975
0.919694 1.40006 0.583333
0.935431 1.36341 0.580383
0.936764 1.3196 0.576471
0.928772 1.33713 0.570071
0.832786 0.978128 0.620799
0.827863 1.00883 0.589669
0.798909 0.967106 0.552392
0.804631 0.955438 0.543059
0.766504 0.92722 0.498616
0.736918 0.910307 0.469229
0.708064 0.899953 0.411912
0.445145 0.998642 0.386263
0.441959 1.04354 0.34363
0.443057 1.10084 0.292195
0.423591 1.07554 0.26978
0.442438 1.15664 0.242086
0.426693 1.0856 0.321299
0.42718 1.08735 0.335175
0.457353 1.09372 0.332007
0.752054 0.936175 0.498673
0.781115 0.928687 0.47716
0.786948 0.941532 0.526387
0.738037 0.936752 0.480459
0.715763 0.956575 0.449477
0.706031 0.94413 0.44085
0.700671 0.92813 0.434584
0.688446 0.933687 0.427901
0.672635 0.945508 0.409482
0.648483 0.955768 0.392977
0.647606 0.969516 0.398913
0.619856 0.9714 0.402144
0.632704 0.973258 0.402836
0.645154 0.972209 0.396519
0.635023 0.958384 0.384384
0.646704 0.95886 0.374986
0.672546 0.956003 0.375139
0.66964 0.952884 0.360757
0.679465 0.945144 0.354468
0.679218 0.933663 0.344817
0.687897 0.928272 0.33678
0.680965 0.920801 0.323174
0.676115 0.910421 0.300954
0.667196 0.916712 0.293892
0.618185 0.917121 0.284004
0.665831 0.931691 0.288435
0.670929 0.912591 0.306655
0.678754 0.912332 0.288251
0.689165 0.938469 0.339556
0.68206 0.933646 0.318219
0.698783 0.932938 0.312762
0.670435 0.960756 0.358954
0.681669 0.966722 0.359555
0.655914 0.956478 0.368273
0.679313 0.956991 0.35695
0.638407 0.957374 0.364187
0.624554 0.972919 0.384225
0.684042 0.969285 0.396129
0.640359 0.986059 0.392759
0.620859 0.988066 0.38073
0.589898 0.99147 0.357261
0.630698 0.987979 0.372234
0.613066 0.942878 0.379589
0.622253 0.945541 0.370784
0.610237 0.943947 0.360339
0.601776 0.918642 0.342675
0.618823 0.975072 0.416651
0.617319 0.962274 0.418373
0.600584 0.960309 0.420626
0.592504 0.947739 0.407333
0.654479 0.985202 0.404452
0.649265 1.00345 0.410767
0.634355 0.962126 0.385978
0.609235 0.971913 0.384507
0.640632 0.946009 0.399233
0.630519 0.951961 0.393639
0.620023 0.936269 0.395784
0.620001 0.919531 0.39876
0.63176 0.912227 0.400854
0.620323 0.919531 0.404296
0.608434 0.926085 0.410676
0.602658 0.92629 0.42232
0.603889 0.913356 0.422767
0.502061 0.899067 0.416769
0.613605 0.928654 0.422323
0.618958 0.934905 0.432386
0.619145 0.919968 0.417297
0.644035 0.907024 0.409951
0.653191 0.91415 0.404086
0.600074 0.933292 0.434611
0.624469 0.928752 0.420383
0.611933 0.923923 0.419604
0.616259 0.925532 0.402074
0.619673 0.958371 0.387532
0.623627 0.940743 0.393417
0.634502 0.935515 0.398254
0.639731 0.946925 0.377955
0.639023 0.947537 0.402934
0.634237 0.967077 0.393541
0.643518 0.927459 0.402159
0.629694 0.938325 0.406038
0.63304 0.921801 0.408217
0.615941 0.933271 0.414658
0.670546 0.92585 0.406454
0.659211 0.917677 0.405607
0.682603 0.922558 0.434067
0.671151 0.931821 0.431233
0.653728 0.934987 0.444288
0.652718 0.925431 0.435532
0.691757 0.952421 0.431442
0.678006 0.965265 0.409375
0.668727 0.971908 0.39964
0.68978 0.967032 0.434201
0.710668 0.957395 0.427245
0.717978 0.975161 0.44243
0.700608 0.986508 0.435115
0.70812 0.981859 0.426993
0.700055 0.988723 0.416371
0.713155 0.980235 0.412858
0.726509 0.993664 0.411329
0.721369 0.966227 0.413529
0.69718 0.966772 0.410728
0.703938 1.00812 0.409327
0.6853 1.01034 0.386123
0.677136 1.02857 0.387155
0.671593 1.00226 0.387813
0.714041 0.976752 0.408585
0.700171 0.978998 0.408865
0.701325 0.971441 0.39596
0.734951 0.982991 0.435317
0.734749 0.991079 0.425141
0.731064 1.00337 0.42307
0.748915 0.97527 0.429452
0.704162 0.925577 0.467359
0.697017 0.934129 0.457319
0.710347 0.925124 0.451821
0.832771 0.999396 0.580566
0.810161 0.999226 0.562407
0.799618 1.02216 0.55617
0.863909 0.992115 0.556537
0.871921 0.991994 0.541544
0.818215 0.992087 0.61498
0.818307 0.97679 0.610291
0.799409 0.97973 0.604441
0.802369 1.01399 0.607702
1.39745 0.0855446 0.594584
1.81514 0.101561 0.593239
1.93898 0.112598 0.606168
2.14992 0.084851 0.616379
2.25794 0.107287 0.635642
2.33671 0.161712 0.656585
2.3674 0.157438 0.657271
2.49141 0.0592525 0.68732
2.50892 0.130517 0.671841
2.57119 0.17017 0.666724
2.60441 0.148621 0.661023
2.66602 0.144141 0.648691
3.03781 0.212199 0.643737
3.03369 0.199871 0.643776
3.05499 0.171713 0.654848
3.07462 0.185223 0.671367
3.09545 0.201053 0.698927
3.11379 0.209173 0.715477
3.11594 0.220054 0.729654
3.11378 0.196118 0.752267
3.13927 0.177454 0.769525
3.15954 0.178164 0.784142
3.16149 0.178602 0.803037
3.17211 0.176384 0.810193
3.17532 0.17413 0.829804
3.17256 0.17612 0.856588
3.18725 0.189167 0.866481
3.19204 0.196012 0.877716
3.20976 0.209634 0.888916
3.21249 0.226563 0.901039
3.23141 0.228028 0.914026
3.23731 0.225015 0.94226
3.25005 0.260513 0.952192
3.26194 0.257048 0.956122
3.21483 0.243639 0.913035
3.20452 0.249299 0.920621
3.21248 0.247553 0.901703
3.22533 0.236911 0.912352
3.22697 0.245251 0.909165
3.25921 0.269712 0.915756
3.23509 0.217452 0.910206
3.25285 0.203921 0.928715
3.26284 0.197676 0.940967
3.27321 0.190569 0.944282
3.19012 0.209209 0.889805
3.20044 0.242049 0.913867
3.17852 0.204859 0.887963
3.18247 0.22787 0.921665
3.18799 0.251686 0.950759
3.19069 0.265431 0.96039
3.19184 0.275362 0.967027
3.16861 0.239689 0.947972
3.15316 0.219416 0.900974
3.16086 0.221767 0.914803
3.17787 0.174598 0.851652
3.18306 0.164691 0.861644
3.20881 0.172201 0.858547
3.22758 0.18071 0.875992
3.23967 0.182469 0.871561
3.23967 0.173291 0.880768
3.25376 0.187356 0.873207
3.23583 0.179493 0.890807
3.22129 0.189757 0.871232
3.18954 0.154614 0.87225
3.17415 0.156705 0.87509
3.17697 0.185261 0.859033
3.16355 0.189231 0.858689
3.18255 0.183524 0.879836
3.18441 0.170996 0.816876
3.20323 0.174035 0.834561
3.17156 0.162296 0.829615
3.17093 0.173241 0.79257
3.1795 0.18141 0.806123
3.14686 0.171142 0.785757
3.13731 0.158772 0.798234
3.14613 0.14921 0.814718
3.14142 0.138626 0.835736
3.13743 0.158484 0.78865
3.13135 0.145684 0.801307
3.13072 0.131713 0.801945
3.16071 0.220015 0.781008
3.1646 0.22937 0.721364
3.21061 0.200976 0.73943
3.22289 0.19706 0.737734
3.22787 0.205689 0.72652
3.18858 0.253886 0.714343
3.13184 0.190706 0.685921
3.08648 0.150587 0.676737
3.12559 0.127807 0.692717
3.12404 0.104383 0.687727
3.13771 0.0918344 0.683649
3.14935 0.0796788 0.677264
3.14321 0.0581239 0.662206
3.06461 0.213617 0.647083
3.05636 0.187908 0.647264
3.05033 0.163151 0.652436
3.06103 0.150817 0.657181
3.07274 0.151763 0.662748
3.08119 0.13792 0.677612
3.04834 0.123514 0.715264
3.0531 0.128313 0.72637
3.05893 0.130993 0.742112
3.08968 0.13784 0.766765
3.09093 0.140386 0.781494
3.12455 0.175787 0.78572
3.11523 0.131974 0.78972
3.09078 0.127026 0.765991
3.10872 0.118744 0.775652
3.1264 0.119765 0.794694
3.0586 0.128224 0.727975
3.08167 0.128514 0.66489
3.07054 0.160341 0.647553
3.08252 0.196154 0.643308
3.0872 0.210291 0.645094
3.0832 0.198981 0.645397
3.0991 0.189227 0.64235
3.10202 0.16124 0.641901
3.041 0.164668 0.650546
3.03506 0.153396 0.674349
3.03672 0.184314 0.648343
3.07071 0.232652 0.647734
3.08944 0.252982 0.643266
3.08607 0.26338 0.632994
3.07044 0.279695 0.618213
3.08083 0.340489 0.605366
3.11089 0.345125 0.599339
3.10054 0.317334 0.581462
3.10359 0.259226 0.639179
3.11302 0.250701 0.629457
3.06949 0.270971 0.635355
3.04746 0.240026 0.642248
3.03752 0.245587 0.628315
3.04216 0.252586 0.611273
3.04453 0.261576 0.588066
3.0346 0.27832 0.580192
3.03475 0.272228 0.551845
3.02018 0.228303 0.616926
3.02639 0.254322 0.62333
3.01354 0.253007 0.62183
3.01125 0.238403 0.609893
2.99463 0.236277 0.603316
3.01817 0.278966 0.624406
3.05215 0.248404 0.624702
3.04666 0.235586 0.598143
3.03271 0.228388 0.574957
3.04211 0.224917 0.54774
3.04121 0.223665 0.535839
2.68652 0.141668 0.625561
2.6873 0.139977 0.613707
2.70043 0.147111 0.5702
2.68801 0.12933 0.592209
2.68247 0.129417 0.62397
2.68808 0.107421 0.627668
2.56181 0.151144 0.655746
2.55754 0.136188 0.66481
2.54807 0.129166 0.667017
2.54747 0.114597 0.684804
2.52114 0.143187 0.703198
2.51089 0.13935 0.713455
2.49998 0.132955 0.716445
2.51305 0.137364 0.718821
2.50183 0.130944 0.720158
2.52064 0.140847 0.731292
2.53339 0.194779 0.748405
2.53464 0.207651 0.749722
2.49268 0.142973 0.729937
2.50085 0.12947 0.738587
2.49088 0.126024 0.746181
2.52293 0.108182 0.715733
2.52267 0.103198 0.737159
2.51881 0.10493 0.749452
2.51514 0.103713 0.766006
2.52183 0.104128 0.735286
2.52618 0.097953 0.753807
2.53044 0.165738 0.665712
2.52444 0.172318 0.676512
2.59505 0.196792 0.634689
2.62132 0.223618 0.586617
2.61662 0.234046 0.56327
2.6249 0.241638 0.545528
2.61906 0.249552 0.52927
2.62666 0.262711 0.502249
2.63444 0.268496 0.493592
2.64719 0.31394 0.461633
2.66717 0.31438 0.44661
2.61021 0.246635 0.520205
2.60054 0.248763 0.480419
2.6035 0.241376 0.483175
2.63965 0.231921 0.577714
2.64631 0.236522 0.566293
2.62755 0.225825 0.574275
2.6317 0.238575 0.562267
2.63922 0.242659 0.553851
2.63942 0.26025 0.511348
2.62376 0.255442 0.544145
2.65453 0.209376 0.569212
2.65171 0.231697 0.56139
2.663 0.227938 0.531687
2.65669 0.220708 0.566233
2.57387 0.218236 0.609939
2.5616 0.226116 0.603356
2.54731 0.214638 0.580877
2.53457 0.21536 0.565481
2.52112 0.210487 0.552981
2.51246 0.223653 0.550189
2.49555 0.215135 0.548619
2.47339 0.228217 0.544948
2.46122 0.231572 0.541835
2.4495 0.236249 0.538716
2.49169 0.238374 0.544912
2.51934 0.210743 0.567135
2.5118 0.228486 0.561807
2.50199 0.244931 0.556033
2.47727 0.247401 0.553273
2.46273 0.238596 0.552997
2.54418 0.219209 0.568021
2.53697 0.236543 0.551512
2.52591 0.226222 0.546291
2.52611 0.238104 0.561295
2.54935 0.236278 0.597382
2.53771 0.231632 0.593937
2.52341 0.2612 0.590736
2.53375 0.269145 0.59063
2.54676 0.288066 0.583652
2.55796 0.22749 0.614659
2.59466 0.195217 0.636747
2.61296 0.195251 0.641873
2.69768 0.188561 0.640236
2.69746 0.168568 0.639747
2.56913 0.228497 0.638881
2.60617 0.26157 0.633038
2.61583 0.265418 0.625236
2.62658 0.280354 0.617405
2.55464 0.054628 0.653193
2.57273 0.075395 0.631599
2.58875 0.0717218 0.612758
2.49698 0.0302634 0.661834
2.51741 0.0106921 0.636462
2.56231 -0.0585617 0.616146
2.55789 -0.111563 0.59301
2.53247 -0.118963 0.5839
2.45541 -0.0227555 0.602161
2.3834 0.145801 0.637456
2.38663 0.124617 0.615054
2.38574 0.112131 0.603551
2.34716 0.0676661 0.549383
2.3638 0.076211 0.587636
2.41471 0.124394 0.594172
2.44559 0.122196 0.560142
2.39677 0.125806 0.583353
2.37557 0.127254 0.612584
2.40955 0.163385 0.663392
2.42413 0.167662 0.639876
2.4211 0.156333 0.642422
2.40402 0.157401 0.647985
2.39904 0.146885 0.645042
2.39883 0.13404 0.643052
2.42588 0.140989 0.641117
2.40189 0.151568 0.640335
2.44859 0.177346 0.652373
2.44898 0.123011 0.657535
2.31999 0.128731 0.634633
2.3238 0.107982 0.617781
2.31884 0.120486 0.609116
2.30653 0.109291 0.602248
2.29808 0.118669 0.592417
2.31387 0.108155 0.591258
2.31007 0.0907456 0.593802
2.31813 0.0897864 0.578089
2.28626 0.112262 0.596299
2.32679 0.101134 0.599611
2.33104 0.0919126 0.60601
2.29778 0.100813 0.606769
2.31012 0.136116 0.600196
2.30491 0.119098 0.609291
2.33057 0.11565 0.632169
2.33351 0.122306 0.624633
2.33812 0.118083 0.613238
2.34443 0.11686 0.603102
2.29756 0.136933 0.620015
2.28531 0.140676 0.604654
2.27151 0.125102 0.607445
2.25618 0.103223 0.603512
2.26287 0.107849 0.623622
2.28034 0.102889 0.618065
2.27942 0.118862 0.617889
2.29644 0.112988 0.618024
2.31302 0.125797 0.616692
2.31448 0.114968 0.621654
2.32123 0.0987259 0.625486
2.28035 0.102889 0.618023
2.27537 0.111454 0.602278
2.28086 0.111577 0.5894
2.29839 0.117782 0.585501
2.31303 0.103883 0.564677
2.29069 0.101517 0.544555
2.27556 0.113701 0.570233
2.27167 0.123766 0.561314
2.1805 0.0853464 0.587594
2.18671 0.0989478 0.58877
2.19796 0.0982645 0.584631
2.19673 0.080526 0.587434
2.22233 0.0701782 0.592106
2.2606 0.0556541 0.59434
2.27577 0.0556974 0.605786
2.19978 0.121564 0.606491
2.18444 0.0813723 0.572605
1.97228 0.10179 0.594207
2.09531 -0.011571 0.539535
2.13406 -0.0317023 0.528656
2.17697 -0.0325253 0.531348
2.27264 -0.116154 0.499511
2.27582 -0.098676 0.496605
2.28579 -0.15033 0.484422
2.30192 -0.176122 0.478454
2.32737 -0.185117 0.477745
2.33635 -0.203259 0.463076
2.37521 -0.191284 0.457884
2.3948 -0.290066 0.431911
2.41488 -0.307777 0.42371
2.4126 -0.292964 0.424338
2.43653 -0.32965 0.428559
2.4377 -0.34227 0.431449
2.4623 -0.373983 0.439808
2.48449 -0.390577 0.443837
2.48767 -0.415544 0.450363
2.4782 -0.435061 0.454035
2.468 -0.439665 0.458347
2.45406 -0.457411 0.443516
2.44108 -0.457577 0.44418
2.42706 -0.461809 0.433718
2.42952 -0.468068 0.423779
2.41885 -0.451545 0.398538
2.43448 -0.432119 0.378482
2.43791 -0.392597 0.361891
2.4126 -0.439967 0.387768
2.40634 -0.425255 0.375757
2.40434 -0.409828 0.37201
2.4295 -0.4596 0.446603
