x y z
0 0 0
160 0 0
233.91 0 30.6147
262.195 0 58.899
269.848 0 77.3765
269.848 0 87.3765
271.762 1.67276e-07 91.9959
273.384 1.67276e-07 90.9121
276.919 3.34553e-07 94.4476
290.778 8.36381e-07 100.188
278.833 5.01829e-07 99.067
266.022 -3.34552e-07 86.6153
266.022 -6.69105e-07 91.6153
264.276 -0.783789 91.2347
262.53 -1.56758 95.8541
252.855 -5.91234 106.461
262.53 -1.56758 100.854
262.195 -6.69105e-07 95.8541
240.981 -8.21903e-07 117.067
239.068 -9.89179e-07 121.687
237.446 -8.47369e-07 120.603
233.91 -8.72835e-07 124.138
220.052 -6.64971e-07 129.879
231.997 -1.04011e-06 128.758
262.195 -1.33821e-06 105.854
263.94 0.783787 110.474
265.42 1.44825 109.39
268.645 2.8965 112.925
281.287 8.5732 118.665
270.391 3.68029 117.545
276.337 0 73.0411
280.164 0 82.2799
280.164 0 87.2799
278.25 -1.67276e-07 86.8993
276.337 -3.34552e-07 91.5187
265.73 -4.10951e-07 102.125
276.337 -6.69105e-07 96.5187
283.408 0 80.1122
285.321 0 84.7316
286.943 0 83.6477
290.479 0 87.1833
304.337 0 92.9235
292.392 0 91.8027
290.479 0 87.1833
318.195 0 98.6637
321.731 0 102.199
322.815 0 100.577
327.434 0 102.491
342.434 0 102.491
330.969 0 106.026
294.306 0 96.4221
294.306 0 101.422
292.392 -1.67276e-07 101.041
290.479 -3.34552e-07 105.661
279.872 -4.10951e-07 116.267
290.479 -6.69105e-07 110.661
290.479 0 87.1833
345.911 0 110.144
352.983 0 117.215
354.896 0 121.835
356.518 0 120.751
360.054 0 124.286
373.912 0 130.027
361.967 0 128.906
355.15 0 113.971
358.686 0 117.507
359.77 0 115.884
364.389 0 117.798
379.389 0 117.798
367.925 0 121.333
364.389 0 117.798
394.389 0 117.798
399.008 0 119.711
399.389 0 117.798
404.389 0 117.798
418.247 0 112.058
409.008 0 119.711
371.46 0 124.869
373.373 0 129.488
374.996 0 128.404
378.531 0 131.94
392.389 0 137.68
380.445 0 136.559
298.133 0 105.661
298.133 0 115.661
300.046 1.67276e-07 120.28
301.668 1.67276e-07 119.196
305.204 3.34553e-07 122.732
319.062 8.36381e-07 128.472
307.117 5.01829e-07 127.351
294.306 -3.34552e-07 114.9
294.306 -6.69105e-07 119.9
292.56 -0.783789 119.519
290.815 -1.56758 124.138
281.139 -5.91234 134.745
290.815 -1.56758 129.138
290.479 -6.69105e-07 124.138
269.266 -8.21903e-07 145.352
267.352 -9.89179e-07 149.971
265.73 -8.47369e-07 148.887
262.195 -8.72835e-07 152.423
248.336 -6.64971e-07 158.163
260.281 -1.04011e-06 157.042
290.479 -1.33821e-06 134.138
292.224 0.783787 138.758
293.704 1.44825 137.674
296.929 2.8965 141.21
309.572 8.5732 146.95
298.675 3.68029 145.829
270.866 0 45.922
285.008 0 60.0642
288.834 0 69.303
288.834 0 74.303
286.921 -1.67276e-07 73.9224
285.008 -3.34552e-07 78.5418
274.401 -4.10951e-07 89.1483
285.008 -6.69105e-07 83.5418
292.079 0 67.1352
293.992 0 71.7546
295.614 0 70.6708
299.15 0 74.2063
313.008 0 79.9465
301.063 0 78.8257
299.15 0 74.2063
326.866 0 85.6868
330.402 0 89.2223
331.485 0 87.6002
336.105 0 89.5136
351.105 0 89.5136
339.64 0 93.0492
302.977 0 83.4451
302.977 0 88.4451
301.063 -1.67276e-07 88.0645
299.15 -3.34552e-07 92.6839
288.543 -4.10951e-07 103.29
299.15 -6.69105e-07 97.6839
289.343 0 53.5757
296.414 0 60.6468
298.328 0 65.2662
299.95 0 64.1823
303.485 0 67.7178
317.343 0 73.4581
305.399 0 72.3372
298.582 0 57.4025
302.117 0 60.9381
303.201 0 59.3159
307.821 0 61.2294
322.821 0 61.2294
311.356 0 64.7649
307.821 0 61.2294
337.821 0 61.2294
342.44 0 63.1428
342.821 0 61.2294
347.821 0 61.2294
361.679 0 55.4891
352.44 0 63.1428
314.892 0 68.3004
316.805 0 72.9198
318.427 0 71.836
321.963 0 75.3715
335.821 0 81.1118
323.876 0 79.9909
307.821 0 61.2294
367.821 0 61.2294
377.059 0 65.0562
380.595 0 68.5917
381.679 0 66.9696
386.298 0 68.883
401.298 0 68.883
389.834 0 72.4186
377.821 0 61.2294
382.44 0 63.1428
382.821 0 61.2294
387.821 0 61.2294
401.679 0 55.4891
392.44 0 63.1428
387.821 0 61.2294
415.537 0 49.7489
420.537 0 49.7489
420.156 0 47.8354
424.776 0 45.922
435.382 0 35.3154
429.776 0 45.922
397.059 0 65.0562
400.595 0 68.5917
401.679 0 66.9696
406.298 0 68.883
421.298 0 68.883
409.834 0 72.4186
321.963 0 75.3715
325.79 0 84.6103
325.79 0 89.6103
323.876 -1.67276e-07 89.2297
321.963 -3.34552e-07 93.8491
311.356 -4.10951e-07 104.456
321.963 -6.69105e-07 98.8491
329.034 0 82.4426
330.947 0 87.062
332.569 0 85.9781
336.105 0 89.5137
349.963 0 95.2539
338.018 0 94.1331
336.105 0 89.5137
363.821 0 100.994
367.357 0 104.53
368.44 0 102.908
373.06 0 104.821
388.06 0 104.821
376.595 0 108.357
339.932 0 98.7525
339.932 0 103.752
338.018 -1.67276e-07 103.372
336.105 -3.34552e-07 107.991
325.498 -4.10951e-07 118.598
336.105 -6.69105e-07 112.991
307.821 0 61.2294
427.821 0 61.2294
446.298 0 68.883
453.369 0 75.9541
455.283 0 80.5735
456.905 0 79.4896
460.44 0 83.0252
474.298 0 88.7654
462.354 0 87.6446
455.537 0 72.7099
459.072 0 76.2454
460.156 0 74.6233
464.776 0 76.5367
479.776 0 76.5367
468.311 0 80.0722
464.776 0 76.5367
494.776 0 76.5367
499.395 0 78.4501
499.776 0 76.5367
504.776 0 76.5367
518.634 0 70.7964
509.395 0 78.4501
471.847 0 83.6078
473.76 0 88.2272
475.382 0 87.1433
478.918 0 90.6788
492.776 0 96.4191
480.831 0 95.2982
447.821 0 61.2294
457.059 0 65.0562
460.595 0 68.5917
461.679 0 66.9696
466.298 0 68.883
481.298 0 68.883
469.834 0 72.4186
457.821 0 61.2294
462.44 0 63.1428
462.821 0 61.2294
467.821 0 61.2294
481.679 0 55.4891
472.44 0 63.1428
467.821 0 61.2294
495.537 0 49.7489
500.537 0 49.7489
500.156 0 47.8354
504.776 0 45.922
515.382 0 35.3154
509.776 0 45.922
477.059 0 65.0562
480.595 0 68.5917
481.679 0 66.9696
486.298 0 68.883
501.298 0 68.883
489.834 0 72.4186
467.821 0 61.2294
523.253 0 38.2684
533.253 0 38.2684
537.873 0 40.1818
538.253 0 38.2684
543.253 0 38.2684
557.111 0 32.5281
547.873 0 40.1818
532.492 0 34.4415
537.492 0 34.4415
537.111 0 32.5281
541.731 0 30.6147
552.337 0 20.0081
546.731 0 30.6147
541.731 0 30.6147
562.944 0 9.40148
567.563 0 7.48806
566.479 0 5.86594
570.015 0 2.33041
575.755 0 -11.5278
574.634 0 0.416992
551.731 0 30.6147
556.35 0 32.5281
556.731 0 30.6147
561.731 0 30.6147
575.589 0 24.8744
566.35 0 32.5281
486.298 0 68.883
493.369 0 75.9541
495.283 0 80.5735
496.905 0 79.4896
500.44 0 83.0252
514.298 0 88.7654
502.354 0 87.6446
495.537 0 72.7099
499.072 0 76.2454
500.156 0 74.6233
504.776 0 76.5367
519.776 0 76.5367
508.311 0 80.0722
504.776 0 76.5367
534.776 0 76.5367
539.395 0 78.4501
539.776 0 76.5367
544.776 0 76.5367
558.634 0 70.7964
549.395 0 78.4501
511.847 0 83.6078
513.76 0 88.2272
515.382 0 87.1433
518.918 0 90.6788
532.776 0 96.4191
520.831 0 95.2982
336.105 0 89.5137
343.758 0 107.991
343.758 0 117.991
345.672 1.67276e-07 122.611
347.294 1.67276e-07 121.527
350.83 3.34553e-07 125.062
364.688 8.36381e-07 130.803
352.743 5.01829e-07 129.682
339.932 -3.34552e-07 117.23
339.932 -6.69105e-07 122.23
338.186 -0.783789 121.849
336.441 -1.56758 126.469
326.765 -5.91234 137.075
336.441 -1.56758 131.469
336.105 -6.69105e-07 126.469
314.892 -8.21903e-07 147.682
312.978 -9.89179e-07 152.301
311.356 -8.47369e-07 151.218
307.821 -8.72835e-07 154.753
293.962 -6.64971e-07 160.493
305.907 -1.04011e-06 159.373
336.105 -1.33821e-06 136.469
337.85 0.783787 141.088
339.33 1.44825 140.004
342.555 2.8965 143.54
355.198 8.5732 149.28
344.301 3.68029 148.159
350.247 0 103.656
354.074 0 112.895
354.074 0 117.895
352.16 -1.67276e-07 117.514
350.247 -3.34552e-07 122.133
339.64 -4.10951e-07 132.74
350.247 -6.69105e-07 127.133
357.318 0 110.727
359.231 0 115.346
360.853 0 114.262
364.389 0 117.798
378.247 0 123.538
366.302 0 122.417
364.389 0 117.798
392.105 0 129.278
395.641 0 132.814
396.725 0 131.192
401.344 0 133.105
416.344 0 133.105
404.88 0 136.641
368.216 0 127.037
368.216 0 132.037
366.302 -1.67276e-07 131.656
364.389 -3.34552e-07 136.276
353.782 -4.10951e-07 146.882
364.389 -6.69105e-07 141.276
364.389 0 117.798
419.822 0 140.759
426.893 0 147.83
428.806 0 152.449
430.428 0 151.366
433.964 0 154.901
447.822 0 160.641
435.877 0 159.521
429.06 0 144.586
432.596 0 148.121
433.68 0 146.499
438.299 0 148.413
453.299 0 148.413
441.835 0 151.948
438.299 0 148.413
468.299 0 148.413
472.919 0 150.326
473.299 0 148.413
478.299 0 148.413
492.157 0 142.672
482.919 0 150.326
445.37 0 155.484
447.284 0 160.103
448.906 0 159.019
452.441 0 162.555
466.299 0 168.295
454.355 0 167.174
372.043 0 136.276
372.043 0 146.276
373.956 1.67276e-07 150.895
375.578 1.67276e-07 149.811
379.114 3.34553e-07 153.347
392.972 8.36381e-07 159.087
381.027 5.01829e-07 157.966
368.216 -3.34552e-07 145.514
368.216 -6.69105e-07 150.514
366.47 -0.783789 150.134
364.725 -1.56758 154.753
355.049 -5.91234 165.36
364.725 -1.56758 159.753
364.389 -6.69105e-07 154.753
343.176 -8.21903e-07 175.966
341.262 -9.89179e-07 180.586
339.64 -8.47369e-07 179.502
336.105 -8.72835e-07 183.037
322.247 -6.64971e-07 188.778
334.191 -1.04011e-06 187.657
364.389 -1.33821e-06 164.753
366.134 0.783787 169.373
367.614 1.44825 168.289
370.84 2.8965 171.824
383.482 8.5732 177.564
372.585 3.68029 176.444
240 0 0
276.955 0 15.3073
291.097 0 29.4495
294.924 0 38.6883
294.924 0 43.6883
293.011 -1.67276e-07 43.3077
291.097 -3.34552e-07 47.9271
280.491 -4.10951e-07 58.5337
291.097 -6.69105e-07 52.9271
298.168 0 36.5205
300.082 0 41.1399
301.704 0 40.0561
305.239 0 43.5916
319.097 0 49.3319
307.153 0 48.211
305.239 0 43.5916
332.956 0 55.0721
336.491 0 58.6077
337.575 0 56.9855
342.194 0 58.899
357.194 0 58.899
345.73 0 62.4345
309.066 0 52.8304
309.066 0 57.8304
307.153 -1.67276e-07 57.4498
305.239 -3.34552e-07 62.0692
294.633 -4.10951e-07 72.6758
305.239 -6.69105e-07 67.0692
295.433 0 22.961
302.504 0 30.0321
304.417 0 34.6515
306.039 0 33.5676
309.575 0 37.1031
323.433 0 42.8434
311.488 0 41.7225
304.671 0 26.7878
308.207 0 30.3234
309.291 0 28.7013
313.91 0 30.6147
328.91 0 30.6147
317.446 0 34.1502
313.91 0 30.6147
343.91 0 30.6147
348.53 0 32.5281
348.91 0 30.6147
353.91 0 30.6147
367.768 0 24.8744
358.53 0 32.5281
320.981 0 37.6858
322.895 0 42.3051
324.517 0 41.2213
328.052 0 44.7568
341.91 0 50.4971
329.966 0 49.3762
313.91 0 30.6147
373.91 0 30.6147
383.149 0 34.4415
386.685 0 37.9771
387.768 0 36.3549
392.388 0 38.2684
407.388 0 38.2684
395.923 0 41.8039
383.91 0 30.6147
388.53 0 32.5281
388.91 0 30.6147
393.91 0 30.6147
407.768 0 24.8744
398.53 0 32.5281
393.91 0 30.6147
421.627 0 19.1342
426.627 0 19.1342
426.246 0 17.2208
430.865 0 15.3073
441.472 0 4.70074
435.865 0 15.3073
403.149 0 34.4415
406.685 0 37.9771
407.768 0 36.3549
412.388 0 38.2684
427.388 0 38.2684
415.923 0 41.8039
328.052 0 44.7568
331.879 0 53.9956
331.879 0 58.9956
329.966 -1.67276e-07 58.615
328.052 -3.34552e-07 63.2344
317.446 -4.10951e-07 73.841
328.052 -6.69105e-07 68.2344
335.123 0 51.8279
337.037 0 56.4473
338.659 0 55.3634
342.194 0 58.899
356.053 0 64.6392
344.108 0 63.5184
342.194 0 58.899
369.911 0 70.3794
373.446 0 73.915
374.53 0 72.2929
379.149 0 74.2063
394.149 0 74.2063
382.685 0 77.7418
346.021 0 68.1377
346.021 0 73.1377
344.108 -1.67276e-07 72.7571
342.194 -3.34552e-07 77.3765
331.588 -4.10951e-07 87.9831
342.194 -6.69105e-07 82.3765
280 0 0
298.478 0 7.65367
305.549 0 14.7247
307.462 0 19.3441
309.084 0 18.2603
312.62 0 21.7958
326.478 0 27.5361
314.533 0 26.4152
307.716 0 11.4805
311.252 0 15.016
312.336 0 13.3939
316.955 0 15.3073
331.955 0 15.3073
320.491 0 18.8429
316.955 0 15.3073
346.955 0 15.3073
351.574 0 17.2208
351.955 0 15.3073
356.955 0 15.3073
370.813 0 9.56709
361.574 0 17.2208
324.026 0 22.3784
325.94 0 26.9978
327.562 0 25.9139
331.097 0 29.4495
344.955 0 35.1897
333.011 0 34.0689
300 0 0
309.239 0 3.82683
312.774 0 7.36237
313.858 0 5.74025
318.478 0 7.65367
333.478 0 7.65367
322.013 0 11.1892
310 0 0
314.619 0 1.91342
315 0 0
320 0 0
333.858 0 -5.74025
324.619 0 1.91342
320 0 0
347.716 0 -11.4805
352.716 0 -11.4805
352.336 0 -13.3939
356.955 0 -15.3073
367.562 0 -25.9139
361.955 0 -15.3073
329.239 0 3.82683
332.774 0 7.36237
333.858 0 5.74025
338.478 0 7.65367
353.478 0 7.65367
342.013 0 11.1892
320 0 0
375.433 0 -22.961
385.433 0 -22.961
390.052 0 -21.0476
390.433 0 -22.961
395.433 0 -22.961
409.291 0 -28.7013
400.052 0 -21.0476
384.671 0 -26.7878
389.671 0 -26.7878
389.291 0 -28.7013
393.91 0 -30.6147
404.517 0 -41.2213
398.91 0 -30.6147
393.91 0 -30.6147
415.123 0 -51.8279
419.743 0 -53.7413
418.659 0 -55.3634
422.194 0 -58.899
427.935 0 -72.7571
426.814 0 -60.8124
403.91 0 -30.6147
408.53 0 -28.7013
408.91 0 -30.6147
413.91 0 -30.6147
427.768 0 -36.3549
418.53 0 -28.7013
338.478 0 7.65367
345.549 0 14.7247
347.462 0 19.3441
349.084 0 18.2603
352.62 0 21.7958
366.478 0 27.5361
354.533 0 26.4152
347.716 0 11.4805
351.252 0 15.016
352.336 0 13.3939
356.955 0 15.3073
371.955 0 15.3073
360.491 0 18.8429
356.955 0 15.3073
386.955 0 15.3073
391.574 0 17.2208
391.955 0 15.3073
396.955 0 15.3073
410.813 0 9.56709
401.574 0 17.2208
364.026 0 22.3784
365.94 0 26.9978
367.562 0 25.9139
371.097 0 29.4495
384.955 0 35.1897
373.011 0 34.0689
320 0 0
430.865 0 -45.922
450.865 0 -45.922
460.104 0 -42.0952
463.64 0 -38.5597
464.723 0 -40.1818
469.343 0 -38.2684
484.343 0 -38.2684
472.878 0 -34.7328
460.865 0 -45.922
465.485 0 -44.0086
465.865 0 -45.922
470.865 0 -45.922
484.723 0 -51.6623
475.485 0 -44.0086
470.865 0 -45.922
498.582 0 -57.4025
503.582 0 -57.4025
503.201 0 -59.3159
507.82 0 -61.2294
518.427 0 -71.836
512.82 0 -61.2294
480.104 0 -42.0952
483.64 0 -38.5597
484.723 0 -40.1818
489.343 0 -38.2684
504.343 0 -38.2684
492.878 0 -34.7328
449.343 0 -53.5757
459.343 0 -53.5757
463.962 0 -51.6623
464.343 0 -53.5757
469.343 0 -53.5757
483.201 0 -59.3159
473.962 0 -51.6623
458.582 0 -57.4025
463.582 0 -57.4025
463.201 0 -59.3159
467.82 0 -61.2294
478.427 0 -71.836
472.82 0 -61.2294
467.82 0 -61.2294
489.033 0 -82.4426
493.653 0 -84.356
492.569 0 -85.9781
496.104 0 -89.5137
501.845 0 -103.372
500.724 0 -91.4271
477.82 0 -61.2294
482.44 0 -59.3159
482.82 0 -61.2294
487.82 0 -61.2294
501.678 0 -66.9696
492.44 0 -59.3159
467.82 0 -61.2294
510.247 0 -103.656
519.485 0 -107.483
524.485 0 -107.483
524.105 0 -109.396
528.724 0 -111.309
539.331 0 -121.916
533.724 0 -111.309
517.318 0 -110.727
521.937 0 -112.64
520.853 0 -114.262
524.389 0 -117.798
530.129 0 -131.656
529.008 0 -119.711
524.389 0 -117.798
535.869 0 -145.514
539.405 0 -149.05
537.782 0 -150.134
539.696 0 -154.753
539.696 0 -169.753
543.231 0 -158.289
533.627 0 -121.625
538.627 0 -121.625
538.247 0 -123.538
542.866 0 -125.452
553.473 0 -136.058
547.866 0 -125.452
487.82 0 -61.2294
497.059 0 -57.4025
500.595 0 -53.867
501.678 0 -55.4891
506.298 0 -53.5757
521.298 0 -53.5757
509.833 0 -50.0402
497.82 0 -61.2294
502.44 0 -59.3159
502.82 0 -61.2294
507.82 0 -61.2294
521.678 0 -66.9696
512.44 0 -59.3159
507.82 0 -61.2294
535.537 0 -72.7099
540.537 0 -72.7099
540.156 0 -74.6233
544.775 0 -76.5367
555.382 0 -87.1433
549.775 0 -76.5367
517.059 0 -57.4025
520.595 0 -53.867
521.678 0 -55.4891
526.298 0 -53.5757
541.298 0 -53.5757
529.833 0 -50.0402
356.955 0 15.3073
371.097 0 29.4495
374.924 0 38.6883
374.924 0 43.6883
373.011 -1.67276e-07 43.3077
371.097 -3.34552e-07 47.9271
360.491 -4.10951e-07 58.5337
371.097 -6.69105e-07 52.9271
378.168 0 36.5205
380.082 0 41.1399
381.704 0 40.0561
385.239 0 43.5916
399.097 0 49.3319
387.153 0 48.211
385.239 0 43.5916
412.956 0 55.0721
416.491 0 58.6077
417.575 0 56.9855
422.194 0 58.899
437.194 0 58.899
425.73 0 62.4345
389.066 0 52.8304
389.066 0 57.8304
387.153 -1.67276e-07 57.4498
385.239 -3.34552e-07 62.0692
374.633 -4.10951e-07 72.6758
385.239 -6.69105e-07 67.0692
375.433 0 22.961
382.504 0 30.0321
384.417 0 34.6515
386.039 0 33.5676
389.575 0 37.1031
403.433 0 42.8434
391.488 0 41.7225
384.671 0 26.7878
388.207 0 30.3234
389.291 0 28.7013
393.91 0 30.6147
408.91 0 30.6147
397.446 0 34.1502
393.91 0 30.6147
423.91 0 30.6147
428.53 0 32.5281
428.91 0 30.6147
433.91 0 30.6147
447.768 0 24.8744
438.53 0 32.5281
400.981 0 37.6858
402.895 0 42.3051
404.517 0 41.2213
408.052 0 44.7568
421.91 0 50.4971
409.966 0 49.3762
393.91 0 30.6147
453.91 0 30.6147
463.149 0 34.4415
466.684 0 37.9771
467.768 0 36.3549
472.388 0 38.2684
487.388 0 38.2684
475.923 0 41.8039
463.91 0 30.6147
468.53 0 32.5281
468.91 0 30.6147
473.91 0 30.6147
487.768 0 24.8744
478.53 0 32.5281
473.91 0 30.6147
501.626 0 19.1342
506.626 0 19.1342
506.246 0 17.2208
510.865 0 15.3073
521.472 0 4.70074
515.865 0 15.3073
483.149 0 34.4415
486.684 0 37.9771
487.768 0 36.3549
492.388 0 38.2684
507.388 0 38.2684
495.923 0 41.8039
408.052 0 44.7568
411.879 0 53.9956
411.879 0 58.9956
409.966 -1.67276e-07 58.615
408.052 -3.34552e-07 63.2344
397.446 -4.10951e-07 73.841
408.052 -6.69105e-07 68.2344
415.123 0 51.8279
417.037 0 56.4473
418.659 0 55.3634
422.194 0 58.899
436.052 0 64.6392
424.108 0 63.5184
422.194 0 58.899
449.911 0 70.3794
453.446 0 73.915
454.53 0 72.2929
459.149 0 74.2063
474.149 0 74.2063
462.685 0 77.7418
426.021 0 68.1377
426.021 0 73.1377
424.108 -1.67276e-07 72.7571
422.194 -3.34552e-07 77.3765
411.588 -4.10951e-07 87.9831
422.194 -6.69105e-07 82.3765
320 0 0
541.73 0 -91.844
581.73 0 -91.844
600.208 0 -84.1903
607.279 0 -77.1193
609.192 0 -72.4999
610.815 0 -73.5837
614.35 0 -70.0482
628.208 0 -64.3079
616.263 0 -65.4288
609.447 0 -80.3635
612.982 0 -76.828
614.066 0 -78.4501
618.686 0 -76.5367
633.686 0 -76.5367
622.221 0 -73.0011
618.686 0 -76.5367
648.686 0 -76.5367
653.305 0 -74.6233
653.686 0 -76.5367
658.686 0 -76.5367
672.544 0 -82.2769
663.305 0 -74.6233
625.757 0 -69.4656
627.67 0 -64.8462
629.292 0 -65.9301
632.828 0 -62.3945
646.686 0 -56.6543
634.741 0 -57.7751
601.73 0 -91.844
610.969 0 -88.0172
614.505 0 -84.4816
615.589 0 -86.1038
620.208 0 -84.1903
635.208 0 -84.1903
623.744 0 -80.6548
611.73 0 -91.844
616.35 0 -89.9306
616.73 0 -91.844
621.73 0 -91.844
635.589 0 -97.5842
626.35 0 -89.9306
621.73 0 -91.844
649.447 0 -103.324
654.447 0 -103.324
654.066 0 -105.238
658.686 0 -107.151
669.292 0 -117.758
663.686 0 -107.151
630.969 0 -88.0172
634.505 0 -84.4816
635.589 0 -86.1038
640.208 0 -84.1903
655.208 0 -84.1903
643.744 0 -80.6548
621.73 0 -91.844
677.163 0 -114.805
687.163 0 -114.805
691.782 0 -112.892
692.163 0 -114.805
697.163 0 -114.805
711.021 0 -120.545
701.782 0 -112.892
686.402 0 -118.632
691.402 0 -118.632
691.021 0 -120.545
695.641 0 -122.459
706.247 0 -133.065
700.641 0 -122.459
695.641 0 -122.459
716.854 0 -143.672
721.473 0 -145.585
720.389 0 -147.207
723.925 0 -150.743
729.665 0 -164.601
728.544 0 -152.656
705.641 0 -122.459
710.26 0 -120.545
710.641 0 -122.459
715.641 0 -122.459
729.499 0 -128.199
720.26 0 -120.545
640.208 0 -84.1903
647.279 0 -77.1193
649.192 0 -72.4999
650.815 0 -73.5837
654.35 0 -70.0482
668.208 0 -64.3079
656.263 0 -65.4288
649.447 0 -80.3635
652.982 0 -76.828
654.066 0 -78.4501
658.686 0 -76.5367
673.686 0 -76.5367
662.221 0 -73.0011
658.686 0 -76.5367
688.686 0 -76.5367
693.305 0 -74.6233
693.686 0 -76.5367
698.686 0 -76.5367
712.544 0 -82.2769
703.305 0 -74.6233
665.757 0 -69.4656
667.67 0 -64.8462
669.292 0 -65.9301
672.828 0 -62.3945
686.686 0 -56.6543
674.741 0 -57.7751
578.686 0 -107.151
598.686 0 -107.151
607.924 0 -103.324
611.46 0 -99.7889
612.544 0 -101.411
617.163 0 -99.4977
632.163 0 -99.4977
620.699 0 -95.9621
608.686 0 -107.151
613.305 0 -105.238
613.686 0 -107.151
618.686 0 -107.151
632.544 0 -112.892
623.305 0 -105.238
618.686 0 -107.151
646.402 0 -118.632
651.402 0 -118.632
651.021 0 -120.545
655.641 0 -122.459
666.247 0 -133.065
660.641 0 -122.459
627.924 0 -103.324
631.46 0 -99.7889
632.544 0 -101.411
637.163 0 -99.4977
652.163 0 -99.4977
640.699 0 -95.9621
597.163 0 -114.805
607.163 0 -114.805
611.782 0 -112.892
612.163 0 -114.805
617.163 0 -114.805
631.021 0 -120.545
621.782 0 -112.892
606.402 0 -118.632
611.402 0 -118.632
611.021 0 -120.545
615.641 0 -122.459
626.247 0 -133.065
620.641 0 -122.459
615.641 0 -122.459
636.854 0 -143.672
641.473 0 -145.585
640.389 0 -147.207
643.925 0 -150.743
649.665 0 -164.601
648.544 0 -152.656
625.641 0 -122.459
630.26 0 -120.545
630.641 0 -122.459
635.641 0 -122.459
649.499 0 -128.199
640.26 0 -120.545
615.641 0 -122.459
658.067 0 -164.885
667.306 0 -168.712
672.306 0 -168.712
671.925 0 -170.625
676.544 0 -172.539
687.151 0 -183.145
681.544 0 -172.539
665.138 0 -171.956
669.757 0 -173.87
668.673 0 -175.492
672.209 0 -179.027
677.949 0 -192.885
676.828 0 -180.941
672.209 0 -179.027
683.689 0 -206.744
687.225 0 -210.279
685.603 0 -211.363
687.516 0 -215.982
687.516 0 -230.982
691.052 0 -219.518
681.448 0 -182.854
686.448 0 -182.854
686.067 0 -184.767
690.687 0 -186.681
701.293 0 -197.288
695.687 0 -186.681
635.641 0 -122.459
644.879 0 -118.632
648.415 0 -115.096
649.499 0 -116.718
654.118 0 -114.805
669.118 0 -114.805
657.654 0 -111.269
645.641 0 -122.459
650.26 0 -120.545
650.641 0 -122.459
655.641 0 -122.459
669.499 0 -128.199
660.26 0 -120.545
655.641 0 -122.459
683.357 0 -133.939
688.357 0 -133.939
687.976 0 -135.853
692.596 0 -137.766
703.202 0 -148.373
697.596 0 -137.766
664.879 0 -118.632
668.415 0 -115.096
669.499 0 -116.718
674.118 0 -114.805
689.118 0 -114.805
677.654 0 -111.269
615.641 0 -122.459
700.493 0 -207.312
718.971 0 -214.965
728.971 0 -214.965
733.59 0 -213.052
733.971 0 -214.965
738.971 0 -214.965
752.829 0 -220.705
743.59 0 -213.052
728.209 0 -218.792
733.209 0 -218.792
732.829 0 -220.705
737.448 0 -222.619
748.055 0 -233.226
742.448 0 -222.619
737.448 0 -222.619
758.661 0 -243.832
763.281 0 -245.746
762.197 0 -247.368
765.732 0 -250.903
771.473 0 -264.761
770.352 0 -252.817
747.448 0 -222.619
752.068 0 -220.705
752.448 0 -222.619
757.448 0 -222.619
771.306 0 -228.359
762.068 0 -220.705
714.635 0 -221.454
723.874 0 -225.281
728.874 0 -225.281
728.493 0 -227.194
733.113 0 -229.107
743.719 0 -239.714
738.113 0 -229.107
721.706 0 -228.525
726.326 0 -230.438
725.242 0 -232.06
728.777 0 -235.596
734.518 0 -249.454
733.397 0 -237.509
728.777 0 -235.596
740.258 0 -263.312
743.793 0 -266.848
742.171 0 -267.932
744.084 0 -272.551
744.084 0 -287.551
747.62 0 -276.086
738.016 0 -239.423
743.016 0 -239.423
742.635 0 -241.336
747.255 0 -243.25
757.861 0 -253.856
752.255 0 -243.25
728.777 0 -235.596
751.738 0 -291.029
758.809 0 -298.1
763.428 0 -300.013
762.345 0 -301.635
765.88 0 -305.171
771.62 0 -319.029
770.5 0 -307.084
755.565 0 -300.267
759.1 0 -303.803
757.478 0 -304.887
759.392 0 -309.506
759.392 0 -324.506
762.927 0 -313.042
759.392 0 -309.506
759.392 0 -339.506
757.478 -1.67276e-07 -344.125
759.392 -3.34552e-07 -344.506
759.392 -6.69105e-07 -349.506
764.628 2.35136 -363.364
757.646 -0.78379 -354.125
766.463 0 -316.577
771.082 0 -318.491
769.998 0 -320.113
773.534 0 -323.648
779.274 0 -337.506
778.153 0 -325.562
747.255 0 -243.25
757.255 0 -243.25
761.874 0 -241.336
762.255 0 -243.25
767.255 0 -243.25
781.113 0 -248.99
771.874 0 -241.336
756.494 0 -247.076
761.494 0 -247.076
761.113 0 -248.99
765.732 0 -250.903
776.339 0 -261.51
770.732 0 -250.903
765.732 0 -250.903
786.946 0 -272.116
791.565 0 -274.03
790.481 0 -275.652
794.017 0 -279.187
799.757 0 -293.046
798.636 0 -281.101
775.732 0 -250.903
780.352 0 -248.99
780.732 0 -250.903
785.732 0 -250.903
799.591 0 -256.643
790.352 0 -248.99
655.641 0 -122.459
674.118 0 -114.805
681.189 0 -107.734
683.103 0 -103.114
684.725 0 -104.198
688.26 0 -100.663
702.118 0 -94.9226
690.174 0 -96.0434
683.357 0 -110.978
686.892 0 -107.443
687.976 0 -109.065
692.596 0 -107.151
707.596 0 -107.151
696.131 0 -103.616
692.596 0 -107.151
722.596 0 -107.151
727.215 0 -105.238
727.596 0 -107.151
732.596 0 -107.151
746.454 0 -112.892
737.215 0 -105.238
699.667 0 -100.08
701.58 0 -95.4608
703.202 0 -96.5447
706.738 0 -93.0092
720.596 0 -87.2689
708.651 0 -88.3898
675.641 0 -122.459
684.879 0 -118.632
688.415 0 -115.096
689.499 0 -116.718
694.118 0 -114.805
709.118 0 -114.805
697.654 0 -111.269
685.641 0 -122.459
690.26 0 -120.545
690.641 0 -122.459
695.641 0 -122.459
709.499 0 -128.199
700.26 0 -120.545
695.641 0 -122.459
723.357 0 -133.939
728.357 0 -133.939
727.976 0 -135.853
732.596 0 -137.766
743.202 0 -148.373
737.596 0 -137.766
704.879 0 -118.632
708.415 0 -115.096
709.499 0 -116.718
714.118 0 -114.805
729.118 0 -114.805
717.654 0 -111.269
695.641 0 -122.459
751.073 0 -145.42
761.073 0 -145.42
765.693 0 -143.506
766.073 0 -145.42
771.073 0 -145.42
784.931 0 -151.16
775.693 0 -143.506
760.312 0 -149.247
765.312 0 -149.247
764.931 0 -151.16
769.551 0 -153.073
780.157 0 -163.68
774.551 0 -153.073
769.551 0 -153.073
790.764 0 -174.287
795.383 0 -176.2
794.299 0 -177.822
797.835 0 -181.358
803.575 0 -195.216
802.454 0 -183.271
779.551 0 -153.073
784.17 0 -151.16
784.551 0 -153.073
789.551 0 -153.073
803.409 0 -158.814
794.17 0 -151.16
714.118 0 -114.805
721.189 0 -107.734
723.103 0 -103.114
724.725 0 -104.198
728.26 0 -100.663
742.118 0 -94.9226
730.174 0 -96.0434
723.357 0 -110.978
726.892 0 -107.443
727.976 0 -109.065
732.596 0 -107.151
747.596 0 -107.151
736.131 0 -103.616
732.596 0 -107.151
762.596 0 -107.151
767.215 0 -105.238
767.596 0 -107.151
772.596 0 -107.151
786.454 0 -112.892
777.215 0 -105.238
739.667 0 -100.08
741.58 0 -95.4608
743.202 0 -96.5447
746.738 0 -93.0092
760.596 0 -87.2689
748.651 0 -88.3898
393.91 0 30.6147
422.194 0 58.899
429.848 0 77.3765
429.848 0 87.3765
431.761 1.67276e-07 91.9959
433.384 1.67276e-07 90.9121
436.919 3.34553e-07 94.4476
450.777 8.36381e-07 100.188
438.832 5.01829e-07 99.067
426.021 -3.34552e-07 86.6153
426.021 -6.69105e-07 91.6153
424.276 -0.783789 91.2347
422.53 -1.56758 95.8541
412.854 -5.91234 106.461
422.53 -1.56758 100.854
422.194 -6.69105e-07 95.8541
400.981 -8.21903e-07 117.067
399.068 -9.89179e-07 121.687
397.446 -8.47369e-07 120.603
393.91 -8.72835e-07 124.138
380.052 -6.64971e-07 129.879
391.997 -1.04011e-06 128.758
422.194 -1.33821e-06 105.854
423.94 0.783787 110.474
425.42 1.44825 109.39
428.645 2.8965 112.925
441.287 8.5732 118.665
430.39 3.68029 117.545
436.336 0 73.0411
440.163 0 82.2799
440.163 0 87.2799
438.25 -1.67276e-07 86.8993
436.336 -3.34552e-07 91.5187
425.73 -4.10951e-07 102.125
436.336 -6.69105e-07 96.5187
443.407 0 80.1122
445.321 0 84.7316
446.943 0 83.6477
450.479 0 87.1833
464.337 0 92.9235
452.392 0 91.8027
450.479 0 87.1833
478.195 0 98.6637
481.73 0 102.199
482.814 0 100.577
487.434 0 102.491
502.434 0 102.491
490.969 0 106.026
454.305 0 96.4221
454.305 0 101.422
452.392 -1.67276e-07 101.041
450.479 -3.34552e-07 105.661
439.872 -4.10951e-07 116.267
450.479 -6.69105e-07 110.661
450.479 0 87.1833
505.911 0 110.144
512.982 0 117.215
514.896 0 121.835
516.518 0 120.751
520.053 0 124.286
533.911 0 130.027
521.967 0 128.906
515.15 0 113.971
518.685 0 117.507
519.769 0 115.884
524.389 0 117.798
539.389 0 117.798
527.924 0 121.333
524.389 0 117.798
554.389 0 117.798
559.008 0 119.711
559.389 0 117.798
564.389 0 117.798
578.247 0 112.058
569.008 0 119.711
531.46 0 124.869
533.373 0 129.488
534.995 0 128.404
538.531 0 131.94
552.389 0 137.68
540.444 0 136.559
458.132 0 105.661
458.132 0 115.661
460.046 1.67276e-07 120.28
461.668 1.67276e-07 119.196
465.203 3.34553e-07 122.732
479.061 8.36381e-07 128.472
467.117 5.01829e-07 127.351
454.305 -3.34552e-07 114.9
454.305 -6.69105e-07 119.9
452.56 -0.783789 119.519
450.814 -1.56758 124.138
441.138 -5.91234 134.745
450.814 -1.56758 129.138
450.479 -6.69105e-07 124.138
429.265 -8.21903e-07 145.352
427.352 -9.89179e-07 149.971
425.73 -8.47369e-07 148.887
422.194 -8.72835e-07 152.423
408.336 -6.64971e-07 158.163
420.281 -1.04011e-06 157.042
450.479 -1.33821e-06 134.138
452.224 0.783787 138.758
453.704 1.44825 137.674
456.929 2.8965 141.21
469.571 8.5732 146.95
458.675 3.68029 145.829
430.865 0 45.922
445.007 0 60.0642
448.834 0 69.303
448.834 0 74.303
446.921 -1.67276e-07 73.9224
445.007 -3.34552e-07 78.5418
434.401 -4.10951e-07 89.1483
445.007 -6.69105e-07 83.5418
452.078 0 67.1352
453.992 0 71.7546
455.614 0 70.6708
459.149 0 74.2063
473.008 0 79.9465
461.063 0 78.8257
459.149 0 74.2063
486.866 0 85.6868
490.401 0 89.2223
491.485 0 87.6002
496.104 0 89.5136
511.104 0 89.5136
499.64 0 93.0492
462.976 0 83.4451
462.976 0 88.4451
461.063 -1.67276e-07 88.0645
459.149 -3.34552e-07 92.6839
448.543 -4.10951e-07 103.29
459.149 -6.69105e-07 97.6839
449.343 0 53.5757
456.414 0 60.6468
458.327 0 65.2662
459.949 0 64.1823
463.485 0 67.7178
477.343 0 73.4581
465.398 0 72.3372
458.582 0 57.4025
462.117 0 60.9381
463.201 0 59.3159
467.82 0 61.2294
482.82 0 61.2294
471.356 0 64.7649
467.82 0 61.2294
497.82 0 61.2294
502.44 0 63.1428
502.82 0 61.2294
507.82 0 61.2294
521.678 0 55.4891
512.44 0 63.1428
474.891 0 68.3004
476.805 0 72.9198
478.427 0 71.836
481.962 0 75.3715
495.821 0 81.1118
483.876 0 79.9909
467.82 0 61.2294
527.82 0 61.2294
537.059 0 65.0562
540.595 0 68.5917
541.678 0 66.9696
546.298 0 68.883
561.298 0 68.883
549.833 0 72.4186
537.82 0 61.2294
542.44 0 63.1428
542.82 0 61.2294
547.82 0 61.2294
561.678 0 55.4891
552.44 0 63.1428
547.82 0 61.2294
575.537 0 49.7489
580.537 0 49.7489
580.156 0 47.8354
584.775 0 45.922
595.382 0 35.3154
589.775 0 45.922
557.059 0 65.0562
560.595 0 68.5917
561.678 0 66.9696
566.298 0 68.883
581.298 0 68.883
569.833 0 72.4186
481.962 0 75.3715
485.789 0 84.6103
485.789 0 89.6103
483.876 -1.67276e-07 89.2297
481.962 -3.34552e-07 93.8491
471.356 -4.10951e-07 104.456
481.962 -6.69105e-07 98.8491
489.033 0 82.4426
490.947 0 87.062
492.569 0 85.9781
496.104 0 89.5137
509.963 0 95.2539
498.018 0 94.1331
496.104 0 89.5137
523.821 0 100.994
527.356 0 104.53
528.44 0 102.908
533.06 0 104.821
548.06 0 104.821
536.595 0 108.357
499.931 0 98.7525
499.931 0 103.752
498.018 -1.67276e-07 103.372
496.104 -3.34552e-07 107.991
485.498 -4.10951e-07 118.598
496.104 -6.69105e-07 112.991
467.82 0 61.2294
587.82 0 61.2294
606.298 0 68.883
613.369 0 75.9541
615.282 0 80.5735
616.904 0 79.4896
620.44 0 83.0252
634.298 0 88.7654
622.353 0 87.6446
615.537 0 72.7099
619.072 0 76.2454
620.156 0 74.6233
624.775 0 76.5367
639.775 0 76.5367
628.311 0 80.0722
624.775 0 76.5367
654.775 0 76.5367
659.395 0 78.4501
659.775 0 76.5367
664.775 0 76.5367
678.634 0 70.7964
669.395 0 78.4501
631.846 0 83.6078
633.76 0 88.2272
635.382 0 87.1433
638.917 0 90.6788
652.776 0 96.4191
640.831 0 95.2982
607.82 0 61.2294
617.059 0 65.0562
620.595 0 68.5917
621.678 0 66.9696
626.298 0 68.883
641.298 0 68.883
629.833 0 72.4186
617.82 0 61.2294
622.44 0 63.1428
622.82 0 61.2294
627.82 0 61.2294
641.678 0 55.4891
632.44 0 63.1428
627.82 0 61.2294
655.537 0 49.7489
660.537 0 49.7489
660.156 0 47.8354
664.775 0 45.922
675.382 0 35.3154
669.775 0 45.922
637.059 0 65.0562
640.595 0 68.5917
641.678 0 66.9696
646.298 0 68.883
661.298 0 68.883
649.833 0 72.4186
627.82 0 61.2294
683.253 0 38.2684
693.253 0 38.2684
697.872 0 40.1818
698.253 0 38.2684
703.253 0 38.2684
717.111 0 32.5281
707.872 0 40.1818
692.492 0 34.4415
697.492 0 34.4415
697.111 0 32.5281
701.73 0 30.6147
712.337 0 20.0081
706.73 0 30.6147
701.73 0 30.6147
722.944 0 9.40148
727.563 0 7.48806
726.479 0 5.86594
730.015 0 2.33041
735.755 0 -11.5278
734.634 0 0.416992
711.73 0 30.6147
716.35 0 32.5281
716.73 0 30.6147
721.73 0 30.6147
735.589 0 24.8744
726.35 0 32.5281
646.298 0 68.883
653.369 0 75.9541
655.282 0 80.5735
656.904 0 79.4896
660.44 0 83.0252
674.298 0 88.7654
662.353 0 87.6446
655.537 0 72.7099
659.072 0 76.2454
660.156 0 74.6233
664.775 0 76.5367
679.775 0 76.5367
668.311 0 80.0722
664.775 0 76.5367
694.775 0 76.5367
699.395 0 78.4501
699.775 0 76.5367
704.775 0 76.5367
718.634 0 70.7964
709.395 0 78.4501
671.846 0 83.6078
673.76 0 88.2272
675.382 0 87.1433
678.917 0 90.6788
692.776 0 96.4191
680.831 0 95.2982
496.104 0 89.5137
503.758 0 107.991
503.758 0 117.991
505.672 1.67276e-07 122.611
507.294 1.67276e-07 121.527
510.829 3.34553e-07 125.062
524.687 8.36381e-07 130.803
512.743 5.01829e-07 129.682
499.931 -3.34552e-07 117.23
499.931 -6.69105e-07 122.23
498.186 -0.783789 121.849
496.44 -1.56758 126.469
486.764 -5.91234 137.075
496.44 -1.56758 131.469
496.104 -6.69105e-07 126.469
474.891 -8.21903e-07 147.682
472.978 -9.89179e-07 152.301
471.356 -8.47369e-07 151.218
467.82 -8.72835e-07 154.753
453.962 -6.64971e-07 160.493
465.907 -1.04011e-06 159.373
496.104 -1.33821e-06 136.469
497.85 0.783787 141.088
499.33 1.44825 140.004
502.555 2.8965 143.54
515.197 8.5732 149.28
504.301 3.68029 148.159
510.247 0 103.656
514.073 0 112.895
514.073 0 117.895
512.16 -1.67276e-07 117.514
510.247 -3.34552e-07 122.133
499.64 -4.10951e-07 132.74
510.247 -6.69105e-07 127.133
517.318 0 110.727
519.231 0 115.346
520.853 0 114.262
524.389 0 117.798
538.247 0 123.538
526.302 0 122.417
524.389 0 117.798
552.105 0 129.278
555.641 0 132.814
556.724 0 131.192
561.344 0 133.105
576.344 0 133.105
564.879 0 136.641
528.215 0 127.037
528.215 0 132.037
526.302 -1.67276e-07 131.656
524.389 -3.34552e-07 136.276
513.782 -4.10951e-07 146.882
524.389 -6.69105e-07 141.276
524.389 0 117.798
579.821 0 140.759
586.892 0 147.83
588.806 0 152.449
590.428 0 151.366
593.963 0 154.901
607.822 0 160.641
595.877 0 159.521
589.06 0 144.586
592.596 0 148.121
593.679 0 146.499
598.299 0 148.413
613.299 0 148.413
601.834 0 151.948
598.299 0 148.413
628.299 0 148.413
632.918 0 150.326
633.299 0 148.413
638.299 0 148.413
652.157 0 142.672
642.918 0 150.326
605.37 0 155.484
607.283 0 160.103
608.905 0 159.019
612.441 0 162.555
626.299 0 168.295
614.354 0 167.174
532.042 0 136.276
532.042 0 146.276
533.956 1.67276e-07 150.895
535.578 1.67276e-07 149.811
539.113 3.34553e-07 153.347
552.971 8.36381e-07 159.087
541.027 5.01829e-07 157.966
528.215 -3.34552e-07 145.514
528.215 -6.69105e-07 150.514
526.47 -0.783789 150.134
524.724 -1.56758 154.753
515.049 -5.91234 165.36
524.724 -1.56758 159.753
524.389 -6.69105e-07 154.753
503.176 -8.21903e-07 175.966
501.262 -9.89179e-07 180.586
499.64 -8.47369e-07 179.502
496.104 -8.72835e-07 183.037
482.246 -6.64971e-07 188.778
494.191 -1.04011e-06 187.657
524.389 -1.33821e-06 164.753
526.134 0.783787 169.373
527.614 1.44825 168.289
530.839 2.8965 171.824
543.481 8.5732 177.564
532.585 3.68029 176.444
