x y z
2432.03 0.790289 1355.41
2439.02 3.56777e-14 1339.01
2440.94 3.5912e-14 1343.63
2442.56 3.5912e-14 1342.54
2446.09 3.61463e-14 1346.08
2459.95 3.68493e-14 1351.82
2448.01 3.63807e-14 1350.7
2446.09 3.61463e-14 1346.08
2473.81 3.75523e-14 1357.56
2477.35 3.77866e-14 1361.09
2478.43 3.77866e-14 1359.47
2483.05 3.80209e-14 1361.38
2498.05 3.87239e-14 1361.38
2486.58 3.82553e-14 1364.92
2449.92 3.6615e-14 1355.32
2449.92 3.68493e-14 1360.32
2448.08 0.518333 1359.94
2446.24 1.03667 1364.55
2436.03 3.90993 1375.16
2446.24 1.03667 1369.55
2688.84 7.49843e-15 1091.75
2704.15 5.62382e-15 1128.71
2704.15 4.68652e-15 1148.71
2707.89 0.790289 1157.94
2707.89 0.790289 1162.94
2706.08 0.165982 1162.56
2704.27 -0.458326 1167.18
2694.25 -3.91903 1177.79
2704.27 -0.458326 1172.18
2711.07 1.46026 1155.78
2712.94 1.85541 1160.4
2714.53 2.1904 1159.31
2717.98 2.92053 1162.85
2731.54 5.78242 1168.59
2719.86 3.31567 1167.47
2717.98 2.92053 1162.85
2745.1 8.64431 1174.33
2748.56 9.37444 1177.86
2749.62 9.59827 1176.24
2754.14 10.5522 1178.16
2768.82 13.6499 1178.16
2757.6 11.2824 1181.69
2721.73 3.71082 1172.09
2721.73 3.71082 1177.09
2719.87 3.2491 1176.71
2718.02 2.78739 1181.33
2707.72 0.227984 1191.93
2718.02 2.78739 1186.33
2696.66 -1.58058 1147.18
2696.66 -1.58058 1157.18
2698.53 -1.18543 1161.8
2700.12 -0.850446 1160.72
2703.58 -0.120314 1164.25
2717.14 2.74158 1169.99
2705.45 0.27483 1168.87
2692.91 -2.37087 1156.42
2692.91 -2.37087 1161.42
2691.08 -2.92012 1161.04
2689.25 -3.46938 1165.66
2679.09 -6.51405 1176.27
2689.25 -3.46938 1170.66
2689.17 -3.16116 1165.66
2668.41 -7.54195 1186.87
2666.54 -7.93709 1191.49
2664.95 -8.27208 1190.41
2661.5 -9.00221 1193.95
2647.94 -11.8641 1199.69
2659.62 -9.39735 1198.56
2689.17 -3.16116 1175.66
2691 -2.6119 1180.28
2692.56 -2.14627 1179.2
2695.94 -1.13137 1182.73
2709.22 2.84668 1188.47
2697.78 -0.582119 1187.35
2689.17 -3.16116 1165.66
2647.66 -11.9227 1208.09
2643.91 -12.713 1217.33
2643.91 -12.713 1222.33
2642.3 -13.7404 1221.95
2640.69 -14.7677 1226.56
2631.74 -20.4626 1237.17
2640.69 -14.7677 1231.56
2640.74 -13.383 1215.16
2638.87 -13.7781 1219.78
2637.28 -14.1131 1218.69
2633.82 -14.8433 1222.23
2620.26 -17.7052 1227.97
2631.95 -15.2384 1226.85
2633.82 -14.8433 1222.23
2606.7 -20.567 1233.71
2603.24 -21.2972 1237.25
2602.18 -21.521 1235.62
2597.66 -22.475 1237.54
2582.99 -25.5727 1237.54
2594.2 -23.2051 1241.07
2630.08 -15.6336 1231.47
2630.08 -15.6336 1236.47
2630.47 -17.5057 1236.09
2630.87 -19.3779 1240.71
2633.06 -29.7559 1251.31
2630.87 -19.3779 1245.71
2689.17 -3.16116 1185.66
2692.91 -2.37087 1194.9
2692.91 -2.37087 1199.9
2691.12 -3.03936 1199.52
2689.33 -3.70785 1204.14
2679.39 -7.41348 1214.74
2689.33 -3.70785 1209.14
2696.09 -1.70089 1192.73
2697.96 -1.30575 1197.35
2699.55 -0.97076 1196.27
2703.01 -0.240629 1199.8
2716.57 2.62126 1205.54
2704.88 0.154516 1204.42
2703.01 -0.240629 1199.8
2730.13 5.48315 1211.28
2733.59 6.21328 1214.82
2734.65 6.43711 1213.2
2739.17 7.39108 1215.11
2753.84 10.4888 1215.11
2742.63 8.12121 1218.65
2706.75 0.54966 1209.04
2706.75 0.54966 1214.04
2704.94 -0.0746471 1213.66
2703.13 -0.698955 1218.28
2693.11 -4.15966 1228.89
2703.13 -0.698955 1223.28
2717.12 5.62382e-15 1120.03
2724.78 4.68652e-15 1138.51
2724.78 4.21787e-15 1148.51
2726.65 0.395144 1153.13
2728.24 0.730132 1152.05
2731.7 1.46026 1155.58
2745.26 4.32215 1161.32
2733.57 1.85541 1160.2
2721.03 -0.790289 1147.75
2721.03 -0.790289 1152.75
2719.16 -1.18543 1152.37
2717.29 -1.58058 1156.99
2706.91 -3.77097 1167.6
2717.29 -1.58058 1161.99
2717.29 -1.58058 1156.99
2696.53 -5.96137 1178.2
2694.66 -6.35651 1182.82
2693.07 -6.6915 1181.74
2689.61 -7.42163 1185.27
2676.06 -10.2835 1191.01
2687.74 -7.81678 1189.89
2717.29 -1.58058 1166.99
2719.16 -1.18543 1171.61
2720.75 -0.850446 1170.53
2724.21 -0.120314 1174.06
2737.77 2.74158 1179.8
2726.08 0.27483 1178.68
2731.27 4.68652e-15 1134.18
2735.09 4.21787e-15 1143.42
2735.09 3.98354e-15 1148.42
2733.22 -0.395144 1148.04
2731.35 -0.790289 1152.65
2720.97 -2.98068 1163.26
2731.35 -0.790289 1157.65
2738.34 4.21787e-15 1141.25
2740.25 3.98354e-15 1145.87
2741.87 3.98354e-15 1144.78
2745.41 3.74922e-15 1148.32
2759.27 3.04624e-15 1154.06
2747.32 3.51489e-15 1152.94
2745.41 3.74922e-15 1148.32
2773.12 2.34326e-15 1159.8
2776.66 2.10893e-15 1163.33
2777.74 2.10893e-15 1161.71
2782.36 1.87461e-15 1163.63
2797.36 1.17163e-15 1163.63
2785.9 1.64028e-15 1167.16
2749.24 3.28056e-15 1157.56
2749.24 3.04624e-15 1162.56
2747.36 -0.395144 1162.18
2745.49 -0.790289 1166.8
2735.11 -2.98068 1177.4
2745.49 -0.790289 1171.8
2745.41 3.74922e-15 1148.32
2800.84 9.37304e-16 1171.28
2807.91 4.68652e-16 1178.35
2809.83 2.34326e-16 1182.97
2811.45 2.34326e-16 1181.89
2814.98 1.47911e-30 1185.42
2828.84 -7.02978e-16 1191.16
2816.9 -2.34326e-16 1190.04
2810.08 4.68652e-16 1175.11
2813.62 2.34326e-16 1178.64
2814.7 2.34326e-16 1177.02
2819.32 1.47911e-30 1178.93
2834.32 -7.02978e-16 1178.93
2822.85 -2.34326e-16 1182.47
2819.32 1.47911e-30 1178.93
2849.32 -1.40596e-15 1178.93
2853.94 -1.64028e-15 1180.85
2854.32 -1.64028e-15 1178.93
2859.32 -1.87461e-15 1178.93
2873.18 -2.57759e-15 1173.19
2863.94 -2.10893e-15 1180.85
2826.39 -4.68652e-16 1186
2828.3 -7.02978e-16 1190.62
2829.93 -7.02978e-16 1189.54
2833.46 -9.37304e-16 1193.08
2847.32 -1.64028e-15 1198.82
2835.37 -1.17163e-15 1197.7
2753.06 2.81191e-15 1166.8
2753.06 2.34326e-15 1176.8
2754.93 0.395144 1181.42
2756.52 0.730132 1180.33
2759.98 1.46026 1183.87
2773.54 4.32215 1189.61
2761.85 1.85541 1188.49
2749.32 -0.790289 1176.04
2749.32 -0.790289 1181.04
2747.45 -1.18543 1180.65
2745.57 -1.58058 1185.27
2735.2 -3.77097 1195.88
2745.57 -1.58058 1190.27
2745.57 -1.58058 1185.27
2724.82 -5.96137 1206.49
2722.95 -6.35651 1211.11
2721.36 -6.6915 1210.02
2717.9 -7.42163 1213.56
2704.34 -10.2835 1219.3
2716.03 -7.81678 1218.18
2745.57 -1.58058 1195.27
2747.45 -1.18543 1199.89
2749.03 -0.850446 1198.81
2752.49 -0.120314 1202.35
2766.05 2.74158 1208.09
2754.36 0.27483 1206.96
2745.41 3.74922e-15 1148.32
2856.27 -1.87461e-15 1194.24
2870.42 -2.81191e-15 1208.38
2874.24 -3.28056e-15 1217.62
2874.24 -3.51489e-15 1222.62
2872.4 -0.518333 1222.24
2870.56 -1.03667 1226.86
2860.35 -3.90993 1237.47
2870.56 -1.03667 1231.86
2877.49 -3.28056e-15 1215.45
2879.4 -3.51489e-15 1220.07
2881.02 -3.51489e-15 1218.99
2884.56 -3.74922e-15 1222.53
2898.42 -4.45219e-15 1228.27
2886.47 -3.98354e-15 1227.14
2884.56 -3.74922e-15 1222.53
2912.27 -5.15517e-15 1234.01
2915.81 -5.3895e-15 1237.54
2916.89 -5.3895e-15 1235.92
2921.51 -5.62382e-15 1237.83
2936.51 -6.3268e-15 1237.83
2925.05 -5.85815e-15 1241.37
2888.39 -4.21787e-15 1231.76
2888.39 -4.45219e-15 1236.76
2886.54 -0.518333 1236.38
2884.7 -1.03667 1241
2874.49 -3.90993 1251.61
2884.7 -1.03667 1246
2874.75 -2.81191e-15 1201.89
2881.82 -3.28056e-15 1208.97
2883.74 -3.51489e-15 1213.59
2885.36 -3.51489e-15 1212.5
2888.89 -3.74922e-15 1216.04
2902.75 -4.45219e-15 1221.78
2890.81 -3.98354e-15 1220.66
2883.99 -3.28056e-15 1205.72
2887.53 -3.51489e-15 1209.26
2888.61 -3.51489e-15 1207.63
2893.23 -3.74922e-15 1209.55
2908.23 -4.45219e-15 1209.55
2896.76 -3.98354e-15 1213.08
2893.23 -3.74922e-15 1209.55
2923.23 -5.15517e-15 1209.55
2927.85 -5.3895e-15 1211.46
2928.23 -5.3895e-15 1209.55
2933.23 -5.62382e-15 1209.55
2947.09 -6.3268e-15 1203.81
2937.85 -5.85815e-15 1211.46
2900.3 -4.21787e-15 1216.62
2902.21 -4.45219e-15 1221.24
2903.84 -4.45219e-15 1220.15
2907.37 -4.68652e-15 1223.69
2921.23 -5.3895e-15 1229.43
2909.28 -4.92085e-15 1228.31
2893.23 -3.74922e-15 1209.55
2953.23 -6.56113e-15 1209.55
2962.47 -7.02978e-15 1213.38
2966 -7.26411e-15 1216.91
2967.09 -7.26411e-15 1215.29
2971.71 -7.49843e-15 1217.2
2986.71 -8.20141e-15 1217.2
2975.24 -7.73276e-15 1220.74
2963.23 -7.02978e-15 1209.55
2967.85 -7.26411e-15 1211.46
2968.23 -7.26411e-15 1209.55
2973.23 -7.49843e-15 1209.55
2987.09 -8.20141e-15 1203.81
2977.85 -7.73276e-15 1211.46
2973.23 -7.49843e-15 1209.55
3000.95 -8.90439e-15 1198.07
3005.95 -9.13871e-15 1198.07
3005.57 -9.13871e-15 1196.15
3010.18 -9.37304e-15 1194.24
3020.79 -1.0076e-14 1183.63
3015.18 -9.60737e-15 1194.24
2982.47 -7.96708e-15 1213.38
2986 -8.20141e-15 1216.91
2987.09 -8.20141e-15 1215.29
2991.71 -8.43574e-15 1217.2
3006.71 -9.13871e-15 1217.2
2995.24 -8.67006e-15 1220.74
2907.37 -4.68652e-15 1223.69
2911.2 -5.15517e-15 1232.93
2911.2 -5.3895e-15 1237.93
2909.31 -0.318571 1237.55
2907.42 -0.637141 1242.17
2896.97 -2.40307 1252.77
2907.42 -0.637141 1247.17
2914.44 -5.15517e-15 1230.76
2916.36 -5.3895e-15 1235.38
2917.98 -5.3895e-15 1234.3
2921.51 -5.62382e-15 1237.83
2935.37 -6.3268e-15 1243.57
2923.43 -5.85815e-15 1242.45
2921.51 -5.62382e-15 1237.83
2949.23 -7.02978e-15 1249.31
2952.77 -7.26411e-15 1252.85
2953.85 -7.26411e-15 1251.23
2958.47 -7.49843e-15 1253.14
2973.47 -8.20141e-15 1253.14
2962 -7.73276e-15 1256.68
2925.34 -6.09248e-15 1247.07
2925.34 -6.3268e-15 1252.07
2923.44 -0.229111 1251.69
2921.54 -0.458222 1256.31
2911.01 -1.72825 1266.92
2921.54 -0.458222 1261.31
2760.72 1.87461e-15 1185.27
2760.72 9.37304e-16 1205.27
2764.46 0.790289 1214.51
2764.46 0.790289 1219.51
2762.65 0.165982 1219.13
2760.84 -0.458326 1223.75
2750.82 -3.91903 1234.36
2760.84 -0.458326 1228.75
2767.63 1.46026 1212.35
2769.51 1.85541 1216.96
2771.09 2.1904 1215.88
2774.55 2.92053 1219.42
2788.11 5.78242 1225.16
2776.43 3.31567 1224.04
2774.55 2.92053 1219.42
2801.67 8.64431 1230.9
2805.13 9.37444 1234.43
2806.19 9.59827 1232.81
2810.71 10.5522 1234.72
2825.39 13.6499 1234.72
2814.17 11.2824 1238.26
2778.3 3.71082 1228.66
2778.3 3.71082 1233.66
2776.44 3.2491 1233.27
2774.58 2.78739 1237.89
2764.29 0.227984 1248.5
2774.58 2.78739 1242.89
2753.23 -1.58058 1203.75
2753.23 -1.58058 1213.75
2755.1 -1.18543 1218.37
2756.69 -0.850446 1217.29
2760.15 -0.120314 1220.82
2773.71 2.74158 1226.56
2762.02 0.27483 1225.44
2749.48 -2.37087 1212.99
2749.48 -2.37087 1217.99
2747.65 -2.92012 1217.61
2745.82 -3.46938 1222.23
2735.66 -6.51405 1232.84
2745.82 -3.46938 1227.23
2745.74 -3.16116 1222.23
2724.98 -7.54195 1243.44
2723.11 -7.93709 1248.06
2721.52 -8.27208 1246.98
2718.06 -9.00221 1250.51
2704.5 -11.8641 1256.25
2716.19 -9.39735 1255.13
2745.74 -3.16116 1232.23
2747.57 -2.6119 1236.85
2749.13 -2.14627 1235.76
2752.51 -1.13137 1239.3
2765.79 2.84668 1245.04
2754.34 -0.582119 1243.92
2745.74 -3.16116 1222.23
2704.23 -11.9227 1264.66
2700.48 -12.713 1273.89
2700.48 -12.713 1278.89
2698.87 -13.7404 1278.51
2697.25 -14.7677 1283.13
2688.31 -20.4626 1293.74
2697.25 -14.7677 1288.13
2697.31 -13.383 1271.73
2695.44 -13.7781 1276.35
2693.85 -14.1131 1275.26
2690.39 -14.8433 1278.8
2676.83 -17.7052 1284.54
2688.52 -15.2384 1283.42
2690.39 -14.8433 1278.8
2663.27 -20.567 1290.28
2659.81 -21.2972 1293.81
2658.75 -21.521 1292.19
2654.23 -22.475 1294.11
2639.55 -25.5727 1294.11
2650.77 -23.2051 1297.64
2686.64 -15.6336 1288.04
2686.64 -15.6336 1293.04
2687.04 -17.5057 1292.66
2687.44 -19.3779 1297.28
2689.63 -29.7559 1307.88
2687.44 -19.3779 1302.28
2745.74 -3.16116 1242.23
2749.48 -2.37087 1251.47
2749.48 -2.37087 1256.47
2747.69 -3.03936 1256.09
2745.9 -3.70785 1260.71
2735.96 -7.41348 1271.31
2745.9 -3.70785 1265.71
2752.66 -1.70089 1249.3
2754.53 -1.30575 1253.92
2756.12 -0.97076 1252.84
2759.58 -0.240629 1256.37
2773.14 2.62126 1262.11
2761.45 0.154516 1260.99
2759.58 -0.240629 1256.37
2786.69 5.48315 1267.85
2790.15 6.21328 1271.39
2791.21 6.43711 1269.77
2795.73 7.39108 1271.68
2810.41 10.4888 1271.68
2799.19 8.12121 1275.21
2763.32 0.54966 1265.61
2763.32 0.54966 1270.61
2761.51 -0.0746471 1270.23
2759.7 -0.698955 1274.85
2749.68 -4.15966 1285.46
2759.7 -0.698955 1279.85
2801.98 0 829.246
2832.59 0 903.156
2832.59 0 943.156
2840.25 -9.37304e-16 961.634
2840.25 -1.40596e-15 971.634
2842.09 0.518333 976.253
2843.65 0.957754 975.17
2847.05 1.91551 978.705
2860.39 5.66961 984.445
2848.89 2.43384 983.324
2836.56 -1.03667 970.873
2836.56 -1.03667 975.873
2834.77 -1.70617 975.492
2832.98 -2.37567 980.112
2823.04 -6.0869 990.718
2832.98 -2.37567 985.112
2832.88 -2.07333 980.112
2812.46 -7.81986 1001.32
2810.62 -8.33819 1005.94
2809.05 -8.77761 1004.86
2805.65 -9.73536 1008.4
2792.31 -13.4895 1014.14
2803.81 -10.2537 1013.02
2832.88 -2.07333 990.112
2834.67 -1.40383 994.731
2836.19 -0.836254 993.647
2839.5 0.400824 997.183
2852.48 5.24978 1002.92
2841.29 1.07033 1001.8
2846.73 -9.37304e-16 957.299
2850.56 -1.40596e-15 966.537
2850.56 -1.64028e-15 971.537
2848.72 -0.518333 971.157
2846.88 -1.03667 975.776
2836.67 -3.90993 986.383
2846.88 -1.03667 980.776
2853.8 -1.40596e-15 964.37
2855.72 -1.64028e-15 968.989
2857.34 -1.64028e-15 967.905
2860.88 -1.87461e-15 971.441
2874.73 -2.57759e-15 977.181
2862.79 -2.10893e-15 976.06
2860.88 -1.87461e-15 971.441
2888.59 -3.28056e-15 982.921
2892.13 -3.51489e-15 986.457
2893.21 -3.51489e-15 984.835
2897.83 -3.74922e-15 986.748
2912.83 -4.45219e-15 986.748
2901.37 -3.98354e-15 990.284
2864.7 -2.34326e-15 980.679
2864.7 -2.57759e-15 985.679
2862.86 -0.518333 985.299
2861.02 -1.03667 989.918
2850.81 -3.90993 1000.52
2861.02 -1.03667 994.918
2860.88 -1.87461e-15 971.441
2916.31 -4.68652e-15 994.402
2923.38 -5.15517e-15 1001.47
2925.29 -5.3895e-15 1006.09
2926.92 -5.3895e-15 1005.01
2930.45 -5.62382e-15 1008.54
2944.31 -6.3268e-15 1014.28
2932.36 -5.85815e-15 1013.16
2925.55 -5.15517e-15 998.229
2929.08 -5.3895e-15 1001.76
2930.17 -5.3895e-15 1000.14
2934.79 -5.62382e-15 1002.06
2949.79 -6.3268e-15 1002.06
2938.32 -5.85815e-15 1005.59
2934.79 -5.62382e-15 1002.06
2964.79 -7.02978e-15 1002.06
2969.41 -7.26411e-15 1003.97
2969.79 -7.26411e-15 1002.06
2974.79 -7.49843e-15 1002.06
2988.64 -8.20141e-15 996.315
2979.41 -7.73276e-15 1003.97
2941.86 -6.09248e-15 1009.13
2943.77 -6.3268e-15 1013.75
2945.39 -6.3268e-15 1012.66
2948.93 -6.56113e-15 1016.2
2962.79 -7.26411e-15 1021.94
2950.84 -6.79545e-15 1020.82
2868.53 -2.81191e-15 989.918
2868.53 -3.28056e-15 999.918
2870.37 0.518333 1004.54
2871.93 0.957754 1003.45
2875.34 1.91551 1006.99
2888.68 5.66961 1012.73
2877.18 2.43384 1011.61
2864.85 -1.03667 999.157
2864.85 -1.03667 1004.16
2863.05 -1.70617 1003.78
2861.26 -2.37567 1008.4
2851.32 -6.0869 1019
2861.26 -2.37567 1013.4
2861.16 -2.07333 1008.4
2840.74 -7.81986 1029.61
2838.9 -8.33819 1034.23
2837.34 -8.77761 1033.14
2833.94 -9.73536 1036.68
2820.6 -13.4895 1042.42
2832.09 -10.2537 1041.3
2861.16 -2.07333 1018.4
2862.95 -1.40383 1023.02
2864.47 -0.836254 1021.93
2867.79 0.400824 1025.47
2880.77 5.24978 1031.21
2869.58 1.07033 1030.09
2817.28 1.87461e-15 940.112
2817.28 1.87461e-15 960.112
2821.11 1.40596e-15 969.35
2821.11 1.17163e-15 974.35
2819.24 -0.395144 973.97
2817.37 -0.790289 978.589
2806.99 -2.98068 989.196
2817.37 -0.790289 983.589
2824.36 1.40596e-15 967.183
2826.27 1.17163e-15 971.802
2827.89 1.17163e-15 970.718
2831.43 9.37304e-16 974.254
2845.28 2.34326e-16 979.994
2833.34 7.02978e-16 978.873
2831.43 9.37304e-16 974.254
2859.14 -4.68652e-16 985.734
2862.68 -7.02978e-16 989.27
2863.76 -7.02978e-16 987.648
2868.38 -9.37304e-16 989.561
2883.38 -1.64028e-15 989.561
2871.92 -1.17163e-15 993.097
2835.25 4.68652e-16 983.493
2835.25 2.34326e-16 988.493
2833.38 -0.395144 988.112
2831.51 -0.790289 992.731
2821.13 -2.98068 1003.34
2831.51 -0.790289 997.731
2809.63 2.81191e-15 958.589
2809.63 2.81191e-15 968.589
2811.54 2.57759e-15 973.209
2813.17 2.57759e-15 972.125
2816.7 2.34326e-15 975.66
2830.56 1.64028e-15 981.401
2818.62 2.10893e-15 980.28
2805.8 3.28056e-15 967.828
2805.8 3.28056e-15 972.828
2803.89 3.51489e-15 972.447
2801.98 3.74922e-15 977.067
2791.37 5.04815e-15 987.673
2801.98 3.74922e-15 982.067
2801.98 3.74922e-15 977.067
2780.76 6.34708e-15 998.28
2778.85 6.58141e-15 1002.9
2777.23 6.78006e-15 1001.82
2773.69 7.21304e-15 1005.35
2759.83 8.91018e-15 1011.09
2771.78 7.44737e-15 1009.97
2801.98 3.74922e-15 987.067
2803.89 3.51489e-15 991.686
2805.51 3.51489e-15 990.602
2809.05 3.28056e-15 994.138
2822.91 2.57759e-15 999.878
2810.96 3.04624e-15 998.757
2801.98 3.74922e-15 977.067
2759.55 8.94495e-15 1019.49
2755.72 9.4136e-15 1028.73
2755.72 9.4136e-15 1033.73
2753.81 9.64793e-15 1033.35
2751.9 9.88226e-15 1037.97
2741.29 1.11812e-14 1048.58
2751.9 9.88226e-15 1042.97
2752.48 9.81091e-15 1026.56
2750.57 1.00452e-14 1031.18
2748.94 1.02439e-14 1030.1
2745.41 1.06769e-14 1033.64
2731.55 1.2374e-14 1039.38
2743.5 1.09112e-14 1038.25
2745.41 1.06769e-14 1033.64
2717.69 1.40711e-14 1045.12
2714.16 1.45041e-14 1048.65
2713.07 1.46369e-14 1047.03
2708.45 1.52026e-14 1048.94
2693.45 1.70395e-14 1048.94
2704.92 1.56355e-14 1052.48
2741.58 1.11455e-14 1042.87
2741.58 1.11455e-14 1047.87
2739.67 1.13798e-14 1047.49
2737.75 1.16142e-14 1052.11
2727.15 1.29131e-14 1062.72
2737.75 1.16142e-14 1057.11
2801.98 3.74922e-15 997.067
2805.8 3.28056e-15 1006.31
2805.8 3.04624e-15 1011.31
2803.93 -0.395144 1010.92
2802.06 -0.790289 1015.54
2791.68 -2.98068 1026.15
2802.06 -0.790289 1020.54
2809.05 3.28056e-15 1004.14
2810.96 3.04624e-15 1008.76
2812.58 3.04624e-15 1007.67
2816.12 2.81191e-15 1011.21
2829.98 2.10893e-15 1016.95
2818.03 2.57759e-15 1015.83
2816.12 2.81191e-15 1011.21
2843.84 1.40596e-15 1022.69
2847.37 1.17163e-15 1026.22
2848.45 1.17163e-15 1024.6
2853.07 9.37304e-16 1026.52
2868.07 2.34326e-16 1026.52
2856.61 7.02978e-16 1030.05
2819.95 2.34326e-15 1020.45
2819.95 2.10893e-15 1025.45
2818.1 -0.518333 1025.07
2816.26 -1.03667 1029.69
2806.05 -3.90993 1040.29
2816.26 -1.03667 1034.69
2801.98 3.74922e-15 977.067
2717.12 1.41407e-14 1061.92
2709.47 1.5078e-14 1080.4
2709.47 1.5078e-14 1090.4
2711.38 1.53123e-14 1095.02
2713.01 1.53123e-14 1093.93
2716.54 1.55466e-14 1097.47
2730.4 1.62496e-14 1103.21
2718.46 1.5781e-14 1102.09
2705.64 1.46093e-14 1089.64
2705.64 1.46093e-14 1094.64
2703.73 1.4375e-14 1094.26
2701.82 1.41407e-14 1098.87
2691.21 1.28418e-14 1109.48
2701.82 1.41407e-14 1103.87
2701.82 1.41407e-14 1098.87
2680.6 1.15428e-14 1120.09
2678.69 1.13085e-14 1124.71
2677.07 1.11098e-14 1123.62
2673.53 1.06769e-14 1127.16
2659.67 8.97973e-15 1132.9
2671.62 1.04425e-14 1131.78
2701.82 1.41407e-14 1108.87
2703.73 1.4375e-14 1113.49
2705.35 1.4375e-14 1112.41
2708.89 1.46093e-14 1115.95
2722.75 1.53123e-14 1121.69
2710.8 1.48437e-14 1120.57
2702.98 1.58726e-14 1076.06
2699.16 1.63413e-14 1085.3
2699.16 1.63413e-14 1090.3
2697.24 1.61069e-14 1089.92
2695.33 1.58726e-14 1094.54
2684.72 1.45737e-14 1105.15
2695.33 1.58726e-14 1099.54
2695.91 1.67386e-14 1083.13
2694 1.69729e-14 1087.75
2692.38 1.71715e-14 1086.67
2688.84 1.76045e-14 1090.2
2674.98 1.93017e-14 1095.94
2686.93 1.78388e-14 1094.82
2688.84 1.76045e-14 1090.2
2661.12 2.09988e-14 1101.68
2657.59 2.14318e-14 1105.22
2656.5 2.15645e-14 1103.6
2651.88 2.21302e-14 1105.51
2636.88 2.39672e-14 1105.51
2648.35 2.25632e-14 1109.05
2685.01 1.80732e-14 1099.44
2685.01 1.80732e-14 1104.44
2683.1 1.78388e-14 1104.06
2681.19 1.76045e-14 1108.68
2670.58 1.63056e-14 1119.29
2681.19 1.76045e-14 1113.68
2688.84 1.76045e-14 1090.2
2633.41 2.43931e-14 1113.16
2626.34 2.5259e-14 1120.24
2624.42 2.54934e-14 1124.86
2622.8 2.5692e-14 1123.77
2619.27 2.6125e-14 1127.31
2605.41 2.78221e-14 1133.05
2617.35 2.63593e-14 1131.93
2624.17 2.55245e-14 1116.99
2620.63 2.59575e-14 1120.53
2619.55 2.60902e-14 1118.91
2614.93 2.66559e-14 1120.82
2599.93 2.84929e-14 1120.82
2611.39 2.70889e-14 1124.35
2614.93 2.66559e-14 1120.82
2584.93 3.03299e-14 1120.82
2580.31 3.08956e-14 1122.73
2579.93 3.09422e-14 1120.82
2574.93 3.15545e-14 1120.82
2561.07 3.32516e-14 1115.08
2570.31 3.21202e-14 1122.73
2607.86 2.75219e-14 1127.89
2605.95 2.77562e-14 1132.51
2604.32 2.79549e-14 1131.43
2600.79 2.83878e-14 1134.96
2586.93 3.0085e-14 1140.7
2598.87 2.86222e-14 1139.58
2681.19 1.85418e-14 1108.68
2681.19 1.85418e-14 1118.68
2683.1 1.87761e-14 1123.3
2684.72 1.87761e-14 1122.22
2688.26 1.90105e-14 1125.75
2702.12 1.97134e-14 1131.49
2690.17 1.92448e-14 1130.37
2677.36 1.80732e-14 1117.92
2677.36 1.80732e-14 1122.92
2675.45 1.78388e-14 1122.54
2673.53 1.76045e-14 1127.16
2662.93 1.63056e-14 1137.77
2673.53 1.76045e-14 1132.16
2673.53 1.76045e-14 1127.16
2652.32 1.50066e-14 1148.37
2650.41 1.47723e-14 1152.99
2648.78 1.45737e-14 1151.91
2645.25 1.41407e-14 1155.44
2631.39 1.24435e-14 1161.18
2643.33 1.39064e-14 1160.06
2673.53 1.76045e-14 1137.16
2675.45 1.78388e-14 1141.78
2677.07 1.78388e-14 1140.69
2680.6 1.80732e-14 1144.23
2694.46 1.87761e-14 1149.97
2682.52 1.83075e-14 1148.85
2801.98 3.74922e-15 1017.07
2809.63 2.81191e-15 1035.54
2809.63 2.34326e-15 1045.54
2811.5 0.395144 1050.16
2813.09 0.730132 1049.08
2816.55 1.46026 1052.62
2830.11 4.32215 1058.36
2818.42 1.85541 1057.23
2805.89 -0.790289 1044.78
2805.89 -0.790289 1049.78
2804.01 -1.18543 1049.4
2802.14 -1.58058 1054.02
2791.76 -3.77097 1064.63
2802.14 -1.58058 1059.02
2802.14 -1.58058 1054.02
2781.39 -5.96137 1075.24
2779.51 -6.35651 1079.85
2777.93 -6.6915 1078.77
2774.47 -7.42163 1082.31
2760.91 -10.2835 1088.05
2772.6 -7.81678 1086.93
2802.14 -1.58058 1064.02
2804.01 -1.18543 1068.64
2805.6 -0.850446 1067.56
2809.06 -0.120314 1071.09
2822.62 2.74158 1076.83
2810.93 0.27483 1075.71
2816.12 2.81191e-15 1031.21
2819.95 2.34326e-15 1040.45
2819.95 2.10893e-15 1045.45
2818.07 -0.395144 1045.07
2816.2 -0.790289 1049.69
2805.82 -2.98068 1060.29
2816.2 -0.790289 1054.69
2823.19 2.34326e-15 1038.28
2825.1 2.10893e-15 1042.9
2826.73 2.10893e-15 1041.82
2830.26 1.87461e-15 1045.35
2844.12 1.17163e-15 1051.09
2832.17 1.64028e-15 1049.97
2830.26 1.87461e-15 1045.35
2857.98 4.68652e-16 1056.83
2861.51 2.34326e-16 1060.37
2862.6 2.34326e-16 1058.74
2867.22 6.90253e-31 1060.66
2882.22 -7.02978e-16 1060.66
2870.75 -2.34326e-16 1064.19
2834.09 1.40596e-15 1054.59
2834.09 1.17163e-15 1059.59
2832.22 -0.395144 1059.21
2830.34 -0.790289 1063.83
2819.97 -2.98068 1074.44
2830.34 -0.790289 1068.83
2830.26 1.87461e-15 1045.35
2885.69 -9.37304e-16 1068.31
2892.77 -1.40596e-15 1075.38
2894.68 -1.64028e-15 1080
2896.3 -1.64028e-15 1078.92
2899.84 -1.87461e-15 1082.45
2913.69 -2.57759e-15 1088.19
2901.75 -2.10893e-15 1087.07
2894.93 -1.40596e-15 1072.14
2898.47 -1.64028e-15 1075.67
2899.55 -1.64028e-15 1074.05
2904.17 -1.87461e-15 1075.97
2919.17 -2.57759e-15 1075.97
2907.71 -2.10893e-15 1079.5
2904.17 -1.87461e-15 1075.97
2934.17 -3.28056e-15 1075.97
2938.79 -3.51489e-15 1077.88
2939.17 -3.51489e-15 1075.97
2944.17 -3.74922e-15 1075.97
2958.03 -4.45219e-15 1070.23
2948.79 -3.98354e-15 1077.88
2911.24 -2.34326e-15 1083.04
2913.16 -2.57759e-15 1087.66
2914.78 -2.57759e-15 1086.57
2918.31 -2.81191e-15 1090.11
2932.17 -3.51489e-15 1095.85
2920.23 -3.04624e-15 1094.73
2837.91 9.37304e-16 1063.83
2837.91 4.68652e-16 1073.83
2839.79 0.395144 1078.45
2841.37 0.730132 1077.36
2844.83 1.46026 1080.9
2858.39 4.32215 1086.64
2846.71 1.85541 1085.52
2834.17 -0.790289 1073.07
2834.17 -0.790289 1078.07
2832.3 -1.18543 1077.69
2830.43 -1.58058 1082.31
2820.05 -3.77097 1092.91
2830.43 -1.58058 1087.31
2830.43 -1.58058 1082.31
2809.67 -5.96137 1103.52
2807.8 -6.35651 1108.14
2806.21 -6.6915 1107.05
2802.75 -7.42163 1110.59
2789.19 -10.2835 1116.33
2800.88 -7.81678 1115.21
2830.43 -1.58058 1092.31
2832.3 -1.18543 1096.93
2833.89 -0.850446 1095.84
2837.34 -0.120314 1099.38
2850.9 2.74158 1105.12
2839.22 0.27483 1104
2858.55 0 885.815
2873.85 0 922.77
2873.85 0 942.77
2877.68 -4.68652e-16 952.009
2877.68 -7.02978e-16 957.009
2875.84 -0.518333 956.628
2874 -1.03667 961.247
2863.79 -3.90993 971.854
2874 -1.03667 966.247
2880.92 -4.68652e-16 949.841
2882.84 -7.02978e-16 954.46
2884.46 -7.02978e-16 953.376
2888 -9.37304e-16 956.912
2901.85 -1.64028e-15 962.652
2889.91 -1.17163e-15 961.531
2888 -9.37304e-16 956.912
2915.71 -2.34326e-15 968.392
2919.25 -2.57759e-15 971.928
2920.33 -2.57759e-15 970.306
2924.95 -2.81191e-15 972.219
2939.95 -3.51489e-15 972.219
2928.49 -3.04624e-15 975.755
2891.82 -1.40596e-15 966.151
2891.82 -1.64028e-15 971.151
2889.98 -0.518333 970.77
2888.14 -1.03667 975.389
2877.93 -3.90993 985.996
2888.14 -1.03667 980.389
2866.2 9.37304e-16 941.247
2866.2 9.37304e-16 951.247
2868.11 7.02978e-16 955.867
2869.73 7.02978e-16 954.783
2873.27 4.68652e-16 958.318
2887.13 -2.34326e-16 964.059
2875.18 2.34326e-16 962.938
2862.37 1.40596e-15 950.486
2862.37 1.40596e-15 955.486
2860.46 1.64028e-15 955.106
2858.55 1.87461e-15 959.725
2847.94 3.17354e-15 970.332
2858.55 1.87461e-15 964.725
2858.55 1.87461e-15 959.725
2837.33 4.47248e-15 980.938
2835.42 4.7068e-15 985.558
2833.8 4.90545e-15 984.474
2830.26 5.33843e-15 988.009
2816.4 7.03557e-15 993.749
2828.35 5.57276e-15 992.629
2858.55 1.87461e-15 969.725
2860.46 1.64028e-15 974.344
2862.08 1.64028e-15 973.26
2865.62 1.40596e-15 976.796
2879.47 7.02978e-16 982.536
2867.53 1.17163e-15 981.415
2858.55 1.87461e-15 959.725
2816.12 7.07034e-15 1002.15
2812.29 7.539e-15 1011.39
2812.29 7.539e-15 1016.39
2810.38 7.30467e-15 1016.01
2808.47 7.07034e-15 1020.63
2797.86 5.77141e-15 1031.24
2808.47 7.07034e-15 1025.63
2809.05 7.9363e-15 1009.22
2807.13 8.17063e-15 1013.84
2805.51 8.36928e-15 1012.76
2801.98 8.80226e-15 1016.29
2788.12 1.04994e-14 1022.03
2800.06 9.03658e-15 1020.91
2801.98 8.80226e-15 1016.29
2774.26 1.21965e-14 1027.77
2770.73 1.26295e-14 1031.31
2769.64 1.27622e-14 1029.69
2765.02 1.3328e-14 1031.6
2750.02 1.51649e-14 1031.6
2761.49 1.37609e-14 1035.14
2798.15 9.27091e-15 1025.53
2798.15 9.27091e-15 1030.53
2796.24 9.03658e-15 1030.15
2794.32 8.80226e-15 1034.77
2783.72 7.50332e-15 1045.38
2794.32 8.80226e-15 1039.77
2858.55 1.87461e-15 979.725
2862.37 1.40596e-15 988.964
2862.37 1.17163e-15 993.964
2860.5 -0.395144 993.583
2858.63 -0.790289 998.203
2848.25 -2.98068 1008.81
2858.63 -0.790289 1003.2
2865.62 1.40596e-15 986.796
2867.53 1.17163e-15 991.415
2869.15 1.17163e-15 990.332
2872.69 9.37304e-16 993.867
2886.55 2.34326e-16 999.607
2874.6 7.02978e-16 998.486
2872.69 9.37304e-16 993.867
2900.4 -4.68652e-16 1005.35
2903.94 -7.02978e-16 1008.88
2905.02 -7.02978e-16 1007.26
2909.64 -9.37304e-16 1009.17
2924.64 -1.64028e-15 1009.17
2913.18 -1.17163e-15 1012.71
2876.51 4.68652e-16 1003.11
2876.51 2.34326e-16 1008.11
2874.64 -0.395144 1007.73
2872.77 -0.790289 1012.34
2862.39 -2.98068 1022.95
2872.77 -0.790289 1017.34
2886.83 0 914.099
2894.48 0 932.576
2894.48 0 942.576
2896.4 -2.34326e-16 947.196
2898.02 -2.34326e-16 946.112
2901.55 -4.68652e-16 949.648
2915.41 -1.17163e-15 955.388
2903.47 -7.02978e-16 954.267
2890.66 4.68652e-16 941.815
2890.66 4.68652e-16 946.815
2888.74 7.02978e-16 946.435
2886.83 9.37304e-16 951.054
2876.22 2.23624e-15 961.661
2886.83 9.37304e-16 956.054
2886.83 9.37304e-16 951.054
2865.62 3.53517e-15 972.267
2863.7 3.7695e-15 976.887
2862.08 3.96815e-15 975.803
2858.55 4.40113e-15 979.338
2844.69 6.09827e-15 985.079
2856.63 4.63545e-15 983.958
2886.83 9.37304e-16 961.054
2888.74 7.02978e-16 965.673
2890.37 7.02978e-16 964.59
2893.9 4.68652e-16 968.125
2907.76 -2.34326e-16 973.865
2895.81 2.34326e-16 972.745
2900.97 0 928.241
2904.8 0 937.48
2904.8 0 942.48
2902.89 2.34326e-16 942.099
2900.97 4.68652e-16 946.719
2890.37 1.76759e-15 957.325
2900.97 4.68652e-16 951.719
2908.04 0 935.312
2909.96 0 939.931
2911.58 0 938.848
2915.11 0 942.383
2928.97 0 948.123
2917.03 0 947.003
2915.11 0 942.383
2942.83 0 953.864
2946.37 0 957.399
2947.45 0 955.777
2952.07 0 957.69
2967.07 0 957.69
2955.6 0 961.226
2918.94 0 951.622
2918.94 0 956.622
2917.03 2.34326e-16 956.241
2915.11 4.68652e-16 960.861
2904.51 1.76759e-15 971.467
2915.11 4.68652e-16 965.861
2915.11 0 942.383
2970.55 0 965.344
2977.62 0 972.415
2979.53 0 977.035
2981.15 0 975.951
2984.69 0 979.486
2998.55 0 985.227
2986.6 0 984.106
2979.79 0 969.171
2983.32 0 972.707
2984.41 0 971.084
2989.02 0 972.998
3004.02 0 972.998
2992.56 0 976.533
2989.02 0 972.998
3019.02 0 972.998
3023.64 0 974.911
3024.02 0 972.998
3029.02 0 972.998
3042.88 0 967.258
3033.64 0 974.911
2996.1 0 980.069
2998.01 0 984.688
2999.63 0 983.604
3003.17 0 987.14
3017.02 0 992.88
3005.08 0 991.759
2922.77 0 960.861
2922.77 0 970.861
2924.68 -2.34326e-16 975.48
2926.3 -2.34326e-16 974.396
2929.84 -4.68652e-16 977.932
2943.7 -1.17163e-15 983.672
2931.75 -7.02978e-16 982.551
2918.94 4.68652e-16 970.1
2918.94 4.68652e-16 975.1
2917.03 7.02978e-16 974.719
2915.11 9.37304e-16 979.338
2904.51 2.23624e-15 989.945
2915.11 9.37304e-16 984.338
2915.11 9.37304e-16 979.338
2893.9 3.53517e-15 1000.55
2891.99 3.7695e-15 1005.17
2890.37 3.96815e-15 1004.09
2886.83 4.40113e-15 1007.62
2872.97 6.09827e-15 1013.36
2884.92 4.63545e-15 1012.24
2915.11 9.37304e-16 989.338
2917.03 7.02978e-16 993.958
2918.65 7.02978e-16 992.874
2922.19 4.68652e-16 996.409
2936.04 -2.34326e-16 1002.15
2924.1 2.34326e-16 1001.03
2915.11 0 942.383
3025.98 0 988.305
3040.12 0 1002.45
3043.95 0 1011.69
3043.95 0 1016.69
3042.04 2.34326e-16 1016.31
3040.12 4.68652e-16 1020.92
3029.52 1.76759e-15 1031.53
3040.12 4.68652e-16 1025.92
3047.19 0 1009.52
3049.11 0 1014.14
3050.73 0 1013.05
3054.26 0 1016.59
3068.12 0 1022.33
3056.18 0 1021.21
3054.26 0 1016.59
3081.98 0 1028.07
3085.52 0 1031.61
3086.6 0 1029.98
3091.22 0 1031.9
3106.22 0 1031.9
3094.75 0 1035.43
3058.09 0 1025.83
3058.09 0 1030.83
3056.18 2.34326e-16 1030.45
3054.26 4.68652e-16 1035.07
3043.66 1.76759e-15 1045.67
3054.26 4.68652e-16 1040.07
3044.46 0 995.959
3051.53 0 1003.03
3053.44 0 1007.65
3055.06 0 1006.57
3058.6 0 1010.1
3072.46 0 1015.84
3060.51 0 1014.72
3053.7 0 999.786
3057.23 0 1003.32
3058.32 0 1001.7
3062.93 0 1003.61
3077.93 0 1003.61
3066.47 0 1007.15
3062.93 0 1003.61
3092.93 0 1003.61
3097.55 0 1005.53
3097.93 0 1003.61
3102.93 0 1003.61
3116.79 0 997.872
3107.55 0 1005.53
3070.01 0 1010.68
3071.92 0 1015.3
3073.54 0 1014.22
3077.08 0 1017.75
3090.94 0 1023.49
3078.99 0 1022.37
3062.93 0 1003.61
3122.93 0 1003.61
3132.17 0 1007.44
3135.71 0 1010.97
3136.79 0 1009.35
3141.41 0 1011.27
3156.41 0 1011.27
3144.95 0 1014.8
3132.93 0 1003.61
3137.55 0 1005.53
3137.93 0 1003.61
3142.93 0 1003.61
3156.79 0 997.872
3147.55 0 1005.53
3142.93 0 1003.61
3170.65 0 992.132
3175.65 0 992.132
3175.27 0 990.219
3179.89 0 988.305
3190.5 0 977.699
3184.89 0 988.305
3152.17 0 1007.44
3155.71 0 1010.97
3156.79 0 1009.35
3161.41 0 1011.27
3176.41 0 1011.27
3164.95 0 1014.8
3077.08 0 1017.75
3080.9 0 1026.99
3080.9 0 1031.99
3078.99 2.34326e-16 1031.61
3077.08 4.68652e-16 1036.23
3066.47 1.76759e-15 1046.84
3077.08 4.68652e-16 1041.23
3084.15 0 1024.83
3086.06 0 1029.45
3087.68 0 1028.36
3091.22 0 1031.9
3105.08 0 1037.64
3093.13 0 1036.52
3091.22 0 1031.9
3118.94 0 1043.38
3122.47 0 1046.91
3123.55 0 1045.29
3128.17 0 1047.2
3143.17 0 1047.2
3131.71 0 1050.74
3095.05 0 1041.14
3095.05 0 1046.14
3093.13 2.34326e-16 1045.75
3091.22 4.68652e-16 1050.37
3080.61 1.76759e-15 1060.98
3091.22 4.68652e-16 1055.37
2930.42 0 979.338
2930.42 0 999.338
2934.25 -4.68652e-16 1008.58
2934.25 -7.02978e-16 1013.58
2932.41 -0.518333 1013.2
2930.56 -1.03667 1017.82
2920.35 -3.90993 1028.42
2930.56 -1.03667 1022.82
2937.49 -4.68652e-16 1006.41
2939.41 -7.02978e-16 1011.03
2941.03 -7.02978e-16 1009.94
2944.56 -9.37304e-16 1013.48
2958.42 -1.64028e-15 1019.22
2946.48 -1.17163e-15 1018.1
2944.56 -9.37304e-16 1013.48
2972.28 -2.34326e-15 1024.96
2975.82 -2.57759e-15 1028.5
2976.9 -2.57759e-15 1026.87
2981.52 -2.81191e-15 1028.79
2996.52 -3.51489e-15 1028.79
2985.05 -3.04624e-15 1032.32
2948.39 -1.40596e-15 1022.72
2948.39 -1.64028e-15 1027.72
2946.55 -0.518333 1027.34
2944.71 -1.03667 1031.96
2934.5 -3.90993 1042.56
2944.71 -1.03667 1036.96
2922.77 9.37304e-16 997.816
2922.77 9.37304e-16 1007.82
2924.68 7.02978e-16 1012.44
2926.3 7.02978e-16 1011.35
2929.84 4.68652e-16 1014.89
2943.7 -2.34326e-16 1020.63
2931.75 2.34326e-16 1019.51
2918.94 1.40596e-15 1007.05
2918.94 1.40596e-15 1012.05
2917.03 1.64028e-15 1011.67
2915.11 1.87461e-15 1016.29
2904.51 3.17354e-15 1026.9
2915.11 1.87461e-15 1021.29
2915.11 1.87461e-15 1016.29
2893.9 4.47248e-15 1037.51
2891.99 4.7068e-15 1042.13
2890.37 4.90545e-15 1041.04
2886.83 5.33843e-15 1044.58
2872.97 7.03557e-15 1050.32
2884.92 5.57276e-15 1049.2
2915.11 1.87461e-15 1026.29
2917.03 1.64028e-15 1030.91
2918.65 1.64028e-15 1029.83
2922.19 1.40596e-15 1033.36
2936.04 7.02978e-16 1039.1
2924.1 1.17163e-15 1037.98
2915.11 1.87461e-15 1016.29
2872.69 7.07034e-15 1058.72
2868.86 7.539e-15 1067.96
2868.86 7.539e-15 1072.96
2866.95 7.30467e-15 1072.58
2865.03 7.07034e-15 1077.2
2854.43 5.77141e-15 1087.8
2865.03 7.07034e-15 1082.2
2865.62 7.9363e-15 1065.79
2863.7 8.17063e-15 1070.41
2862.08 8.36928e-15 1069.33
2858.55 8.80226e-15 1072.86
2844.69 1.04994e-14 1078.6
2856.63 9.03658e-15 1077.48
2858.55 8.80226e-15 1072.86
2830.83 1.21965e-14 1084.34
2827.29 1.26295e-14 1087.88
2826.21 1.27622e-14 1086.26
2821.59 1.3328e-14 1088.17
2806.59 1.51649e-14 1088.17
2818.05 1.37609e-14 1091.7
2854.72 9.27091e-15 1082.1
2854.72 9.27091e-15 1087.1
2852.81 9.03658e-15 1086.72
2850.89 8.80226e-15 1091.34
2840.29 7.50332e-15 1101.95
2850.89 8.80226e-15 1096.34
2915.11 1.87461e-15 1036.29
2918.94 1.40596e-15 1045.53
2918.94 1.17163e-15 1050.53
2917.07 -0.395144 1050.15
2915.2 -0.790289 1054.77
2904.82 -2.98068 1065.38
2915.2 -0.790289 1059.77
2922.19 1.40596e-15 1043.36
2924.1 1.17163e-15 1047.98
2925.72 1.17163e-15 1046.9
2929.26 9.37304e-16 1050.44
2943.11 2.34326e-16 1056.18
2931.17 7.02978e-16 1055.06
2929.26 9.37304e-16 1050.44
2956.97 -4.68652e-16 1061.92
2960.51 -7.02978e-16 1065.45
2961.59 -7.02978e-16 1063.83
2966.21 -9.37304e-16 1065.74
2981.21 -1.64028e-15 1065.74
2969.75 -1.17163e-15 1069.28
2933.08 4.68652e-16 1059.67
2933.08 2.34326e-16 1064.67
2931.21 -0.395144 1064.29
2929.34 -0.790289 1068.91
2918.96 -2.98068 1079.52
2929.34 -0.790289 1073.91
2915.11 0 942.383
3136.85 0 1034.23
3165.13 0 1062.51
3172.78 0 1080.99
3172.78 0 1090.99
3174.7 -2.34326e-16 1095.61
3176.32 -2.34326e-16 1094.52
3179.85 -4.68652e-16 1098.06
3193.71 -1.17163e-15 1103.8
3181.77 -7.02978e-16 1102.68
3168.96 4.68652e-16 1090.23
3168.96 4.68652e-16 1095.23
3167.04 7.02978e-16 1094.85
3165.13 9.37304e-16 1099.47
3154.52 2.23624e-15 1110.07
3165.13 9.37304e-16 1104.47
3165.13 9.37304e-16 1099.47
3143.92 3.53517e-15 1120.68
3142 3.7695e-15 1125.3
3140.38 3.96815e-15 1124.22
3136.85 4.40113e-15 1127.75
3122.99 6.09827e-15 1133.49
3134.93 4.63545e-15 1132.37
3165.13 9.37304e-16 1109.47
3167.04 7.02978e-16 1114.09
3168.67 7.02978e-16 1113
3172.2 4.68652e-16 1116.54
3186.06 -2.34326e-16 1122.28
3174.11 2.34326e-16 1121.16
3179.27 0 1076.65
3183.1 0 1085.89
3183.1 0 1090.89
3181.19 2.34326e-16 1090.51
3179.27 4.68652e-16 1095.13
3168.67 1.76759e-15 1105.74
3179.27 4.68652e-16 1100.13
3186.34 0 1083.72
3188.26 0 1088.34
3189.88 0 1087.26
3193.41 0 1090.8
3207.27 0 1096.54
3195.33 0 1095.42
3193.41 0 1090.8
3221.13 0 1102.28
3224.67 0 1105.81
3225.75 0 1104.19
3230.37 0 1106.1
3245.37 0 1106.1
3233.9 0 1109.64
3197.24 0 1100.03
3197.24 0 1105.03
3195.33 2.34326e-16 1104.65
3193.41 4.68652e-16 1109.27
3182.81 1.76759e-15 1119.88
3193.41 4.68652e-16 1114.27
3193.41 0 1090.8
3248.85 0 1113.76
3255.92 0 1120.83
3257.83 0 1125.45
3259.45 0 1124.36
3262.99 0 1127.9
3276.85 0 1133.64
3264.9 0 1132.52
3258.09 0 1117.58
3261.62 0 1121.12
3262.7 0 1119.5
3267.32 0 1121.41
3282.32 0 1121.41
3270.86 0 1124.95
3267.32 0 1121.41
3297.32 0 1121.41
3301.94 0 1123.32
3302.32 0 1121.41
3307.32 0 1121.41
3321.18 0 1115.67
3311.94 0 1123.32
3274.4 0 1128.48
3276.31 0 1133.1
3277.93 0 1132.02
3281.47 0 1135.55
3295.32 0 1141.29
3283.38 0 1140.17
3201.07 0 1109.27
3201.07 0 1119.27
3202.98 -2.34326e-16 1123.89
3204.6 -2.34326e-16 1122.81
3208.14 -4.68652e-16 1126.34
3222 -1.17163e-15 1132.08
3210.05 -7.02978e-16 1130.96
3197.24 4.68652e-16 1118.51
3197.24 4.68652e-16 1123.51
3195.33 7.02978e-16 1123.13
3193.41 9.37304e-16 1127.75
3182.81 2.23624e-15 1138.36
3193.41 9.37304e-16 1132.75
3193.41 9.37304e-16 1127.75
3172.2 3.53517e-15 1148.96
3170.29 3.7695e-15 1153.58
3168.67 3.96815e-15 1152.5
3165.13 4.40113e-15 1156.04
3151.27 6.09827e-15 1161.78
3163.22 4.63545e-15 1160.65
3193.41 9.37304e-16 1137.75
3195.33 7.02978e-16 1142.37
3196.95 7.02978e-16 1141.29
3200.48 4.68652e-16 1144.82
3214.34 -2.34326e-16 1150.56
3202.4 2.34326e-16 1149.44
3173.8 0 1049.53
3187.94 0 1063.68
3191.77 0 1072.92
3191.77 0 1077.92
3189.86 2.34326e-16 1077.53
3187.94 4.68652e-16 1082.15
3177.34 1.76759e-15 1092.76
3187.94 4.68652e-16 1087.15
3195.01 0 1070.75
3196.93 0 1075.37
3198.55 0 1074.28
3202.08 0 1077.82
3215.94 0 1083.56
3204 0 1082.44
3202.08 0 1077.82
3229.8 0 1089.3
3233.34 0 1092.83
3234.42 0 1091.21
3239.04 0 1093.13
3254.04 0 1093.13
3242.58 0 1096.66
3205.91 0 1087.06
3205.91 0 1092.06
3204 2.34326e-16 1091.68
3202.08 4.68652e-16 1096.3
3191.48 1.76759e-15 1106.9
3202.08 4.68652e-16 1101.3
3192.28 0 1057.19
3199.35 0 1064.26
3201.26 0 1068.88
3202.88 0 1067.79
3206.42 0 1071.33
3220.28 0 1077.07
3208.33 0 1075.95
3201.52 0 1061.01
3205.05 0 1064.55
3206.14 0 1062.93
3210.76 0 1064.84
3225.76 0 1064.84
3214.29 0 1068.38
3210.76 0 1064.84
3240.76 0 1064.84
3245.37 0 1066.76
3245.76 0 1064.84
3250.76 0 1064.84
3264.61 0 1059.1
3255.37 0 1066.76
3217.83 0 1071.91
3219.74 0 1076.53
3221.36 0 1075.45
3224.9 0 1078.98
3238.76 0 1084.72
3226.81 0 1083.6
3210.76 0 1064.84
3270.76 0 1064.84
3279.99 0 1068.67
3283.53 0 1072.2
3284.61 0 1070.58
3289.23 0 1072.5
3304.23 0 1072.5
3292.77 0 1076.03
3280.76 0 1064.84
3285.37 0 1066.76
3285.76 0 1064.84
3290.76 0 1064.84
3304.61 0 1059.1
3295.37 0 1066.76
3290.76 0 1064.84
3318.47 0 1053.36
3323.47 0 1053.36
3323.09 0 1051.45
3327.71 0 1049.53
3338.32 0 1038.93
3332.71 0 1049.53
3299.99 0 1068.67
3303.53 0 1072.2
3304.61 0 1070.58
3309.23 0 1072.5
3324.23 0 1072.5
3312.77 0 1076.03
3224.9 0 1078.98
3228.72 0 1088.22
3228.72 0 1093.22
3226.81 2.34326e-16 1092.84
3224.9 4.68652e-16 1097.46
3214.29 1.76759e-15 1108.07
3224.9 4.68652e-16 1102.46
3231.97 0 1086.06
3233.88 0 1090.67
3235.5 0 1089.59
3239.04 0 1093.13
3252.9 0 1098.87
3240.95 0 1097.75
3239.04 0 1093.13
3266.76 0 1104.61
3270.29 0 1108.14
3271.38 0 1106.52
3276 0 1108.43
3291 0 1108.43
3279.53 0 1111.97
3242.87 0 1102.36
3242.87 0 1107.36
3240.95 2.34326e-16 1106.98
3239.04 4.68652e-16 1111.6
3228.43 1.76759e-15 1122.21
3239.04 4.68652e-16 1116.6
3210.76 0 1064.84
3330.76 0 1064.84
3349.23 0 1072.5
3356.3 0 1079.57
3358.22 0 1084.19
3359.84 0 1083.1
3363.38 0 1086.64
3377.23 0 1092.38
3365.29 0 1091.26
3358.47 0 1076.32
3362.01 0 1079.86
3363.09 0 1078.24
3367.71 0 1080.15
3382.71 0 1080.15
3371.25 0 1083.68
3367.71 0 1080.15
3397.71 0 1080.15
3402.33 0 1082.06
3402.71 0 1080.15
3407.71 0 1080.15
3421.57 0 1074.41
3412.33 0 1082.06
3374.78 0 1087.22
3376.7 0 1091.84
3378.32 0 1090.76
3381.85 0 1094.29
3395.71 0 1100.03
3383.77 0 1098.91
3350.76 0 1064.84
3359.99 0 1068.67
3363.53 0 1072.2
3364.61 0 1070.58
3369.23 0 1072.5
3384.23 0 1072.5
3372.77 0 1076.03
3360.76 0 1064.84
3365.37 0 1066.76
3365.76 0 1064.84
3370.76 0 1064.84
3384.61 0 1059.1
3375.37 0 1066.76
3370.76 0 1064.84
3398.47 0 1053.36
3403.47 0 1053.36
3403.09 0 1051.45
3407.71 0 1049.53
3418.32 0 1038.93
3412.71 0 1049.53
3379.99 0 1068.67
3383.53 0 1072.2
3384.61 0 1070.58
3389.23 0 1072.5
3404.23 0 1072.5
3392.77 0 1076.03
3370.76 0 1064.84
3426.19 0 1041.88
3436.19 0 1041.88
3440.81 0 1043.79
3441.19 0 1041.88
3446.19 0 1041.88
3460.05 0 1036.14
3450.81 0 1043.79
3435.43 0 1038.05
3440.43 0 1038.05
3440.05 0 1036.14
3444.67 0 1034.23
3455.27 0 1023.62
3449.67 0 1034.23
3444.67 0 1034.23
3465.88 0 1013.01
3470.5 0 1011.1
3469.41 0 1009.48
3472.95 0 1005.94
3478.69 0 992.085
3477.57 0 1004.03
3454.67 0 1034.23
3459.29 0 1036.14
3459.67 0 1034.23
3464.67 0 1034.23
3478.52 0 1028.49
3469.29 0 1036.14
3389.23 0 1072.5
3396.3 0 1079.57
3398.22 0 1084.19
3399.84 0 1083.1
3403.38 0 1086.64
3417.23 0 1092.38
3405.29 0 1091.26
3398.47 0 1076.32
3402.01 0 1079.86
3403.09 0 1078.24
3407.71 0 1080.15
3422.71 0 1080.15
3411.25 0 1083.68
3407.71 0 1080.15
3437.71 0 1080.15
3442.33 0 1082.06
3442.71 0 1080.15
3447.71 0 1080.15
3461.57 0 1074.41
3452.33 0 1082.06
3414.78 0 1087.22
3416.7 0 1091.84
3418.32 0 1090.76
3421.85 0 1094.29
3435.71 0 1100.03
3423.77 0 1098.91
3239.04 0 1093.13
3246.69 0 1111.6
3246.69 0 1121.6
3248.61 -2.34326e-16 1126.22
3250.23 -2.34326e-16 1125.14
3253.76 -4.68652e-16 1128.67
3267.62 -1.17163e-15 1134.42
3255.68 -7.02978e-16 1133.29
3242.87 4.68652e-16 1120.84
3242.87 4.68652e-16 1125.84
3240.95 7.02978e-16 1125.46
3239.04 9.37304e-16 1130.08
3228.43 2.23624e-15 1140.69
3239.04 9.37304e-16 1135.08
3239.04 9.37304e-16 1130.08
3217.83 3.53517e-15 1151.29
3215.91 3.7695e-15 1155.91
3214.29 3.96815e-15 1154.83
3210.76 4.40113e-15 1158.37
3196.9 6.09827e-15 1164.11
3208.84 4.63545e-15 1162.98
3239.04 9.37304e-16 1140.08
3240.95 7.02978e-16 1144.7
3242.58 7.02978e-16 1143.62
3246.11 4.68652e-16 1147.15
3259.97 -2.34326e-16 1152.89
3248.02 2.34326e-16 1151.77
3253.18 0 1107.27
3257.01 0 1116.51
3257.01 0 1121.51
3255.1 2.34326e-16 1121.13
3253.18 4.68652e-16 1125.75
3242.58 1.76759e-15 1136.35
3253.18 4.68652e-16 1130.75
3260.25 0 1114.34
3262.17 0 1118.96
3263.79 0 1117.87
3267.32 0 1121.41
3281.18 0 1127.15
3269.24 0 1126.03
3267.32 0 1121.41
3295.04 0 1132.89
3298.58 0 1136.43
3299.66 0 1134.8
3304.28 0 1136.72
3319.28 0 1136.72
3307.81 0 1140.25
3271.15 0 1130.65
3271.15 0 1135.65
3269.24 2.34326e-16 1135.27
3267.32 4.68652e-16 1139.89
3256.72 1.76759e-15 1150.49
3267.32 4.68652e-16 1144.89
3267.32 0 1121.41
3322.76 0 1144.37
3329.83 0 1151.44
3331.74 0 1156.06
3333.36 0 1154.98
3336.9 0 1158.51
3350.76 0 1164.25
3338.81 0 1163.13
3332 0 1148.2
3335.53 0 1151.73
3336.62 0 1150.11
3341.23 0 1152.03
3356.23 0 1152.03
3344.77 0 1155.56
3341.23 0 1152.03
3371.23 0 1152.03
3375.85 0 1153.94
3376.23 0 1152.03
3381.23 0 1152.03
3395.09 0 1146.28
3385.85 0 1153.94
3348.31 0 1159.1
3350.22 0 1163.72
3351.84 0 1162.63
3355.38 0 1166.17
3369.23 0 1171.91
3357.29 0 1170.79
3274.98 0 1139.89
3274.98 0 1149.89
3276.89 -2.34326e-16 1154.51
3278.51 -2.34326e-16 1153.42
3282.05 -4.68652e-16 1156.96
3295.91 -1.17163e-15 1162.7
3283.96 -7.02978e-16 1161.58
3271.15 4.68652e-16 1149.13
3271.15 4.68652e-16 1154.13
3269.24 7.02978e-16 1153.75
3267.32 9.37304e-16 1158.37
3256.72 2.23624e-15 1168.97
3267.32 9.37304e-16 1163.37
3267.32 9.37304e-16 1158.37
3246.11 3.53517e-15 1179.58
3244.2 3.7695e-15 1184.2
3242.58 3.96815e-15 1183.11
3239.04 4.40113e-15 1186.65
3225.18 6.09827e-15 1192.39
3237.13 4.63545e-15 1191.27
3267.32 9.37304e-16 1168.37
3269.24 7.02978e-16 1172.98
3270.86 7.02978e-16 1171.9
3274.4 4.68652e-16 1175.44
3288.25 -2.34326e-16 1181.18
3276.31 2.34326e-16 1180.06
2945.73 0 1016.29
2945.73 0 1056.29
2953.38 -9.37304e-16 1074.77
2953.38 -1.40596e-15 1084.77
2955.22 0.518333 1089.39
2956.79 0.957754 1088.31
2960.19 1.91551 1091.84
2973.53 5.66961 1097.58
2962.03 2.43384 1096.46
2949.7 -1.03667 1084.01
2949.7 -1.03667 1089.01
2947.91 -1.70617 1088.63
2946.11 -2.37567 1093.25
2936.18 -6.0869 1103.86
2946.11 -2.37567 1098.25
2946.01 -2.07333 1093.25
2925.59 -7.81986 1114.46
2923.75 -8.33819 1119.08
2922.19 -8.77761 1118
2918.79 -9.73536 1121.53
2905.45 -13.4895 1127.27
2916.95 -10.2537 1126.15
2946.01 -2.07333 1103.25
2947.81 -1.40383 1107.87
2949.33 -0.836254 1106.78
2952.64 0.400824 1110.32
2965.62 5.24978 1116.06
2954.43 1.07033 1114.94
2959.87 -9.37304e-16 1070.44
2963.7 -1.40596e-15 1079.67
2963.7 -1.64028e-15 1084.67
2961.86 -0.518333 1084.29
2960.01 -1.03667 1088.91
2949.8 -3.90993 1099.52
2960.01 -1.03667 1093.91
2966.94 -1.40596e-15 1077.51
2968.86 -1.64028e-15 1082.13
2970.48 -1.64028e-15 1081.04
2974.01 -1.87461e-15 1084.58
2987.87 -2.57759e-15 1090.32
2975.93 -2.10893e-15 1089.2
2974.01 -1.87461e-15 1084.58
3001.73 -3.28056e-15 1096.06
3005.27 -3.51489e-15 1099.59
3006.35 -3.51489e-15 1097.97
3010.97 -3.74922e-15 1099.89
3025.97 -4.45219e-15 1099.89
3014.5 -3.98354e-15 1103.42
2977.84 -2.34326e-15 1093.82
2977.84 -2.57759e-15 1098.82
2976 -0.518333 1098.44
2974.16 -1.03667 1103.06
2963.95 -3.90993 1113.66
2974.16 -1.03667 1108.06
2974.01 -1.87461e-15 1084.58
3029.45 -4.68652e-15 1107.54
3036.52 -5.15517e-15 1114.61
3038.43 -5.3895e-15 1119.23
3040.05 -5.3895e-15 1118.15
3043.59 -5.62382e-15 1121.68
3057.45 -6.3268e-15 1127.42
3045.5 -5.85815e-15 1126.3
3038.68 -5.15517e-15 1111.37
3042.22 -5.3895e-15 1114.9
3043.3 -5.3895e-15 1113.28
3047.92 -5.62382e-15 1115.19
3062.92 -6.3268e-15 1115.19
3051.46 -5.85815e-15 1118.73
3047.92 -5.62382e-15 1115.19
3077.92 -7.02978e-15 1115.19
3082.54 -7.26411e-15 1117.11
3082.92 -7.26411e-15 1115.19
3087.92 -7.49843e-15 1115.19
3101.78 -8.20141e-15 1109.45
3092.54 -7.73276e-15 1117.11
3054.99 -6.09248e-15 1122.26
3056.91 -6.3268e-15 1126.88
3058.53 -6.3268e-15 1125.8
3062.07 -6.56113e-15 1129.33
3075.92 -7.26411e-15 1135.07
3063.98 -6.79545e-15 1133.95
2981.67 -2.81191e-15 1103.06
2981.67 -3.28056e-15 1113.06
2983.51 0.518333 1117.67
2985.07 0.957754 1116.59
2988.47 1.91551 1120.13
3001.81 5.66961 1125.87
2990.32 2.43384 1124.75
2977.98 -1.03667 1112.29
2977.98 -1.03667 1117.29
2976.19 -1.70617 1116.91
2974.4 -2.37567 1121.53
2964.46 -6.0869 1132.14
2974.4 -2.37567 1126.53
2974.3 -2.07333 1121.53
2953.88 -7.81986 1142.75
2952.04 -8.33819 1147.37
2950.48 -8.77761 1146.28
2947.07 -9.73536 1149.82
2933.73 -13.4895 1155.56
2945.23 -10.2537 1154.44
2974.3 -2.07333 1131.53
2976.09 -1.40383 1136.15
2977.61 -0.836254 1135.07
2980.92 0.400824 1138.6
2993.91 5.24978 1144.34
2982.72 1.07033 1143.22
2930.42 1.87461e-15 1053.25
2930.42 1.87461e-15 1073.25
2934.25 1.40596e-15 1082.49
2934.25 1.17163e-15 1087.49
2932.38 -0.395144 1087.11
2930.5 -0.790289 1091.73
2920.13 -2.98068 1102.33
2930.5 -0.790289 1096.73
2937.49 1.40596e-15 1080.32
2939.41 1.17163e-15 1084.94
2941.03 1.17163e-15 1083.86
2944.56 9.37304e-16 1087.39
2958.42 2.34326e-16 1093.13
2946.48 7.02978e-16 1092.01
2944.56 9.37304e-16 1087.39
2972.28 -4.68652e-16 1098.87
2975.82 -7.02978e-16 1102.41
2976.9 -7.02978e-16 1100.78
2981.52 -9.37304e-16 1102.7
2996.52 -1.64028e-15 1102.7
2985.05 -1.17163e-15 1106.23
2948.39 4.68652e-16 1096.63
2948.39 2.34326e-16 1101.63
2946.52 -0.395144 1101.25
2944.65 -0.790289 1105.87
2934.27 -2.98068 1116.48
2944.65 -0.790289 1110.87
2922.77 2.81191e-15 1071.73
2922.77 2.81191e-15 1081.73
2924.68 2.57759e-15 1086.35
2926.3 2.57759e-15 1085.26
2929.84 2.34326e-15 1088.8
2943.7 1.64028e-15 1094.54
2931.75 2.10893e-15 1093.42
2918.94 3.28056e-15 1080.97
