x y z
5242.46 21.2746 -973.799
5247.46 21.2752 -973.799
5261.33 21.401 -979.505
5252.09 21.3171 -971.897
5247.46 21.275 -973.799
5275.21 21.5263 -985.211
5280.21 21.5269 -985.211
5279.83 21.5683 -987.113
5284.45 21.6102 -989.015
5295.11 22.0892 -999.558
5289.45 21.6108 -989.015
5256.71 21.3588 -969.995
5260.26 21.5184 -966.481
5261.33 21.4013 -968.094
5265.96 21.4439 -966.192
5280.96 21.4475 -966.192
5269.51 21.6042 -962.678
5247.46 21.2748 -973.799
5302.95 21.7767 -996.622
5312.95 21.7776 -996.622
5317.57 21.8195 -994.72
5317.95 21.7781 -996.622
5322.95 21.7787 -996.622
5336.82 21.9045 -1002.33
5327.57 21.8206 -994.72
5312.2 21.8604 -1000.43
5317.2 21.8609 -1000.43
5316.82 21.9024 -1002.33
5321.45 21.9443 -1004.23
5332.1 22.4233 -1014.77
5326.45 21.9449 -1004.23
5321.45 21.9442 -1004.23
5342.76 22.9019 -1025.32
5347.39 22.9444 -1027.22
5346.32 23.0622 -1028.83
5349.87 23.2224 -1032.34
5355.72 24.2289 -1046.12
5354.49 23.2657 -1034.25
5331.45 21.9452 -1004.23
5336.07 21.9872 -1002.33
5336.45 21.9458 -1004.23
5341.45 21.9464 -1004.23
5355.32 22.0724 -1009.94
5346.07 21.9884 -1002.33
5265.96 21.4421 -966.191
5273.06 21.7612 -959.163
5275.01 22.096 -954.571
5276.62 21.9243 -955.649
5280.17 22.0873 -952.135
5294.04 22.2254 -946.431
5282.12 22.4256 -947.544
5275.21 21.5271 -962.388
5278.76 21.6873 -958.874
5279.83 21.5702 -960.486
5284.45 21.6134 -958.585
5299.45 21.6189 -958.585
5288.01 21.7743 -955.071
5284.45 21.612 -958.584
5314.45 21.619 -958.585
5319.08 21.6615 -956.684
5319.45 21.6202 -958.586
5324.45 21.6214 -958.586
5338.33 21.7493 -964.292
5329.08 21.664 -956.684
5291.56 21.9325 -951.556
5293.51 22.2679 -946.964
5295.11 22.0962 -948.042
5298.67 22.2599 -944.529
5312.54 22.4001 -938.825
5300.62 22.5988 -939.937
5247.46 21.2743 -973.799
5358.44 22.2766 -1019.44
5378.44 22.2782 -1019.44
5387.68 22.3619 -1015.64
5391.24 22.5214 -1012.13
5392.31 22.4044 -1013.74
5396.93 22.4469 -1011.84
5411.93 22.4503 -1011.84
5400.49 22.6071 -1008.32
5388.44 22.2792 -1019.44
5393.06 22.3211 -1017.54
5393.44 22.2797 -1019.44
5398.44 22.2803 -1019.44
5412.31 22.4061 -1025.15
5403.06 22.3222 -1017.54
5398.44 22.2801 -1019.44
5426.18 22.5314 -1030.86
5431.18 22.532 -1030.86
5430.8 22.5734 -1032.76
5435.43 22.6153 -1034.66
5446.09 23.0943 -1045.2
5440.43 22.6159 -1034.66
5407.68 22.3639 -1015.64
5411.24 22.5235 -1012.13
5412.31 22.4065 -1013.74
5416.93 22.449 -1011.84
5431.93 22.4526 -1011.84
5420.49 22.6093 -1008.32
5376.93 22.4438 -1027.05
5386.93 22.4448 -1027.05
5391.56 22.4867 -1025.15
5391.93 22.4453 -1027.05
5396.93 22.4459 -1027.05
5410.8 22.5717 -1032.76
5401.56 22.4878 -1025.15
5386.18 22.5276 -1030.86
5391.18 22.5281 -1030.86
5390.8 22.5695 -1032.76
5395.43 22.6115 -1034.66
5406.09 23.0905 -1045.2
5400.43 22.6121 -1034.66
5395.43 22.6113 -1034.66
5416.75 23.569 -1055.74
5421.37 23.6116 -1057.65
5420.3 23.7293 -1059.26
5423.85 23.8896 -1062.77
5429.71 24.896 -1076.55
5428.48 23.9328 -1064.67
5405.43 22.6124 -1034.66
5410.05 22.6544 -1032.76
5410.43 22.613 -1034.66
5415.43 22.6136 -1034.66
5429.3 22.7396 -1040.36
5420.05 22.6556 -1032.76
5395.43 22.6111 -1034.66
5438.07 24.5258 -1076.83
5447.31 24.6108 -1080.63
5452.31 24.6119 -1080.63
5451.94 24.6533 -1082.54
5456.56 24.6959 -1084.44
5467.22 25.1767 -1094.98
5461.56 24.6971 -1084.44
5445.17 24.8462 -1083.86
5449.8 24.8894 -1085.76
5448.73 25.0071 -1087.37
5452.28 25.168 -1090.89
5458.13 26.1762 -1104.66
5456.9 25.2118 -1092.79
5452.28 25.1667 -1090.89
5463.98 27.1792 -1118.44
5467.53 27.3429 -1121.95
5465.93 27.5181 -1123.03
5467.88 27.857 -1127.62
5468.06 29.481 -1142.53
5471.44 28.0242 -1131.13
5461.53 25.253 -1094.69
5466.53 25.2548 -1094.69
5466.15 25.2962 -1096.59
5470.77 25.3394 -1098.49
5481.43 25.8223 -1109.04
5475.77 25.3413 -1098.49
5415.43 22.613 -1034.66
5424.68 22.6968 -1030.86
5428.23 22.8564 -1027.34
5429.3 22.7393 -1028.95
5433.92 22.7819 -1027.05
5448.92 22.7855 -1027.05
5437.48 22.9422 -1023.54
5425.43 22.6141 -1034.66
5430.05 22.656 -1032.76
5430.43 22.6147 -1034.66
5435.43 22.6153 -1034.66
5449.3 22.7413 -1040.36
5440.05 22.6573 -1032.76
5435.43 22.6152 -1034.66
5463.17 22.8668 -1046.07
5468.17 22.8674 -1046.07
5467.8 22.9088 -1047.97
5472.42 22.9508 -1049.87
5483.08 23.43 -1060.42
5477.42 22.9514 -1049.87
5444.68 22.699 -1030.86
5448.23 22.8587 -1027.34
5449.3 22.7417 -1028.95
5453.92 22.7843 -1027.05
5468.92 22.7881 -1027.05
5457.48 22.9446 -1023.54
5284.45 21.6084 -958.583
5298.67 22.2464 -944.526
5302.57 22.9158 -935.342
5302.63 23.4531 -930.372
5304.52 23.2933 -930.755
5306.47 23.6708 -926.168
5317.14 24.2904 -915.638
5306.54 24.2499 -921.202
5305.77 22.5724 -937.498
5307.72 22.9106 -932.907
5309.33 22.739 -933.985
5312.88 22.9055 -930.472
5326.75 23.0541 -924.769
5314.83 23.2472 -925.881
5312.88 22.8984 -930.471
5340.62 23.1743 -919.062
5344.18 23.338 -915.549
5345.25 23.221 -917.161
5349.87 23.2676 -915.26
5364.87 23.2837 -915.261
5353.43 23.432 -911.746
5316.78 23.5748 -921.288
5316.84 24.1155 -916.318
5318.73 23.9557 -916.701
5320.69 24.3365 -912.115
5331.35 24.9665 -901.586
5320.75 24.919 -907.149
5302.95 21.7781 -950.976
5310.06 22.0985 -943.948
5312.01 22.4338 -939.356
5313.61 22.2621 -940.434
5317.16 22.4258 -936.92
5331.04 22.5658 -931.217
5319.11 22.7647 -932.329
5312.2 21.8644 -947.173
5315.75 22.0252 -943.659
5316.82 21.9081 -945.271
5321.45 21.9519 -943.37
5336.45 21.9593 -943.371
5325 22.1134 -939.856
5321.45 21.9506 -943.37
5351.45 21.9612 -943.371
5356.07 22.0044 -941.469
5356.45 21.963 -943.371
5361.45 21.9649 -943.372
5375.32 22.0946 -949.078
5366.07 22.0081 -941.47
5328.55 22.2722 -936.341
5330.5 22.6082 -931.75
5332.11 22.4366 -932.828
5335.66 22.6009 -929.314
5349.53 22.7429 -923.611
5337.61 22.9404 -924.723
5321.45 21.9479 -943.369
5381.45 21.961 -943.371
5390.69 22.046 -939.567
5394.25 22.2062 -936.053
5395.32 22.0892 -937.666
5399.94 22.1323 -935.764
5414.94 22.1378 -935.765
5403.5 22.2932 -932.25
5391.45 21.9633 -943.371
5396.07 22.0059 -941.469
5396.45 21.9645 -943.371
5401.45 21.9658 -943.372
5415.32 22.0936 -949.078
5406.07 22.0084 -941.47
5401.45 21.9656 -943.371
5429.19 22.221 -954.784
5434.19 22.2222 -954.784
5433.81 22.2636 -956.686
5438.44 22.3063 -958.588
5449.1 22.7873 -969.131
5443.44 22.3075 -958.588
5410.69 22.0507 -939.568
5414.25 22.211 -936.054
5415.32 22.094 -937.666
5419.94 22.1372 -935.765
5434.94 22.1429 -935.766
5423.5 22.2981 -932.251
5335.66 22.5885 -929.312
5339.56 23.2593 -920.129
5339.62 23.7972 -915.158
5341.51 23.6374 -915.542
5343.47 24.0155 -910.955
5354.13 24.637 -900.425
5343.53 24.5952 -905.989
5342.77 22.9159 -922.285
5344.72 23.2547 -917.694
5346.32 23.0831 -918.772
5349.87 23.2503 -915.258
5363.75 23.401 -909.556
5351.82 23.5926 -910.668
5349.87 23.2432 -915.257
5377.62 23.5232 -903.85
5381.17 23.6875 -900.336
5382.24 23.5705 -901.949
5386.87 23.6178 -900.048
5401.87 23.6359 -900.05
5390.42 23.7829 -896.534
5353.77 23.9209 -906.075
5353.83 24.4622 -901.105
5355.73 24.3024 -901.488
5357.68 24.6839 -896.902
5368.35 25.3158 -886.374
5357.75 25.267 -891.936
5247.46 21.2734 -973.798
5469.41 23.2749 -1065.09
5509.41 23.2778 -1065.09
5527.91 23.4449 -1057.48
5535.01 23.7639 -1050.45
5536.96 24.0986 -1045.86
5538.57 23.9269 -1046.94
5542.12 24.0899 -1043.42
5555.99 24.2278 -1037.72
5544.07 24.4281 -1038.83
5537.16 23.5297 -1053.68
5540.71 23.6899 -1050.16
5541.78 23.5728 -1051.77
5546.4 23.6159 -1049.87
5561.4 23.6213 -1049.87
5549.96 23.7768 -1046.36
5546.4 23.6146 -1049.87
5576.4 23.6212 -1049.87
5581.03 23.6637 -1047.97
5581.4 23.6223 -1049.87
5586.4 23.6235 -1049.87
5600.28 23.7512 -1055.58
5591.03 23.666 -1047.97
5553.51 23.9349 -1042.84
5555.46 24.2703 -1038.25
5557.06 24.0986 -1039.33
5560.62 24.2623 -1035.82
5574.49 24.4023 -1030.11
5562.57 24.6011 -1031.23
5529.41 23.2795 -1065.09
5538.66 23.3631 -1061.28
5542.21 23.5227 -1057.77
5543.28 23.4056 -1059.38
5547.91 23.4481 -1057.48
5562.91 23.4516 -1057.48
5551.46 23.6083 -1053.97
5539.41 23.2804 -1065.09
5544.04 23.3223 -1063.19
5544.41 23.281 -1065.09
5549.41 23.2815 -1065.09
5563.28 23.4073 -1070.79
5554.04 23.3234 -1063.19
5549.41 23.2814 -1065.09
5577.16 23.5326 -1076.5
5582.16 23.5332 -1076.5
5581.78 23.5746 -1078.4
5586.4 23.6165 -1080.3
5597.06 24.0955 -1090.85
5591.4 23.6171 -1080.3
5558.66 23.3651 -1061.28
5562.21 23.5247 -1057.77
5563.28 23.4077 -1059.38
5567.91 23.4502 -1057.48
5582.91 23.4539 -1057.48
5571.46 23.6105 -1053.97
5549.41 23.2811 -1065.09
5604.9 23.783 -1087.91
5614.9 23.7839 -1087.91
5619.52 23.8258 -1086.01
5619.9 23.7844 -1087.91
5624.9 23.785 -1087.91
5638.77 23.9108 -1093.62
5629.52 23.8269 -1086.01
5614.15 23.8667 -1091.71
5619.15 23.8672 -1091.71
5618.77 23.9086 -1093.62
5623.4 23.9506 -1095.52
5634.06 24.4296 -1106.06
5628.4 23.9512 -1095.52
5623.4 23.9505 -1095.52
5644.71 24.9081 -1116.6
5649.34 24.9507 -1118.5
5648.27 25.0684 -1120.12
5651.82 25.2287 -1123.63
5657.67 26.2351 -1137.41
5656.45 25.2719 -1125.53
5633.4 23.9515 -1095.52
5638.02 23.9935 -1093.62
5638.4 23.9521 -1095.52
5643.4 23.9527 -1095.52
5657.27 24.0787 -1101.22
5648.02 23.9947 -1093.62
5567.91 23.4484 -1057.48
5575.01 23.7675 -1050.45
5576.96 24.1023 -1045.86
5578.57 23.9306 -1046.94
5582.12 24.0937 -1043.42
5595.99 24.2318 -1037.72
5584.07 24.4319 -1038.83
5577.16 23.5334 -1053.68
5580.71 23.6936 -1050.16
5581.78 23.5766 -1051.77
5586.4 23.6197 -1049.87
5601.4 23.6252 -1049.87
5589.96 23.7806 -1046.36
5586.4 23.6184 -1049.87
5616.4 23.6253 -1049.87
5621.03 23.6679 -1047.97
5621.4 23.6265 -1049.87
5626.4 23.6277 -1049.87
5640.28 23.7556 -1055.58
5631.03 23.6704 -1047.97
5593.51 23.9388 -1042.84
5595.46 24.2743 -1038.25
5597.06 24.1026 -1039.33
5600.62 24.2663 -1035.82
5614.49 24.4065 -1030.11
5602.57 24.6052 -1031.23
5506.4 23.609 -1080.3
5526.4 23.6107 -1080.3
5535.65 23.6943 -1076.5
5539.21 23.8539 -1072.98
5540.28 23.7368 -1074.6
5544.9 23.7793 -1072.69
5559.9 23.7828 -1072.7
5548.45 23.9395 -1069.18
5536.4 23.6116 -1080.3
5541.03 23.6535 -1078.4
5541.4 23.6122 -1080.3
5546.4 23.6127 -1080.3
5560.28 23.7385 -1086.01
5551.03 23.6546 -1078.4
5546.4 23.6126 -1080.3
5574.15 23.8638 -1091.71
5579.15 23.8644 -1091.71
5578.77 23.9058 -1093.62
5583.4 23.9477 -1095.52
5594.06 24.4267 -1106.06
5588.4 23.9483 -1095.52
5555.65 23.6963 -1076.5
5559.21 23.856 -1072.98
5560.28 23.7389 -1074.6
5564.9 23.7814 -1072.69
5579.9 23.7851 -1072.7
5568.45 23.9417 -1069.18
5524.9 23.7763 -1087.91
5534.9 23.7772 -1087.91
5539.52 23.8191 -1086.01
5539.9 23.7778 -1087.91
5544.9 23.7783 -1087.91
5558.77 23.9041 -1093.62
5549.52 23.8202 -1086.01
5534.15 23.86 -1091.71
5539.15 23.8605 -1091.71
5538.77 23.9019 -1093.62
5543.4 23.9439 -1095.52
5554.06 24.4229 -1106.06
5548.4 23.9445 -1095.52
5543.4 23.9438 -1095.52
5564.72 24.9014 -1116.6
5569.34 24.9439 -1118.5
5568.27 25.0617 -1120.12
5571.82 25.2219 -1123.63
5577.67 26.2283 -1137.41
5576.45 25.2652 -1125.53
5553.4 23.9448 -1095.52
5558.02 23.9868 -1093.62
5558.4 23.9454 -1095.52
5563.4 23.946 -1095.52
5577.27 24.072 -1101.22
5568.02 23.988 -1093.61
5543.4 23.9435 -1095.52
5586.03 25.8581 -1137.69
5595.28 25.9431 -1141.49
5600.28 25.9443 -1141.49
5599.91 25.9857 -1143.39
5604.53 26.0282 -1145.3
5615.19 26.509 -1155.84
5609.53 26.0294 -1145.29
5593.14 26.1786 -1144.72
5597.76 26.2217 -1146.62
5596.69 26.3394 -1148.23
5600.25 26.5003 -1151.74
5606.1 27.5085 -1165.52
5604.87 26.5442 -1153.65
5600.25 26.499 -1151.74
5611.95 28.5115 -1179.29
5615.5 28.6752 -1182.81
5613.9 28.8504 -1183.89
5615.85 29.1892 -1188.48
5616.03 30.8133 -1203.39
5619.41 29.3565 -1191.99
5609.5 26.5853 -1155.55
5614.5 26.5872 -1155.55
5614.12 26.6285 -1157.45
5618.74 26.6718 -1159.35
5629.4 27.1546 -1169.89
5623.74 26.6737 -1159.35
5563.4 23.9454 -1095.52
5572.64 24.0292 -1091.71
5576.2 24.1888 -1088.2
5577.27 24.0718 -1089.81
5581.89 24.1143 -1087.91
5596.89 24.118 -1087.91
5585.45 24.2746 -1084.39
5573.4 23.9465 -1095.52
5578.02 23.9884 -1093.61
5578.4 23.9471 -1095.52
5583.4 23.9477 -1095.52
5597.27 24.0737 -1101.22
5588.02 23.9897 -1093.61
5583.4 23.9476 -1095.52
5611.14 24.1992 -1106.93
5616.14 24.1998 -1106.93
5615.76 24.2412 -1108.83
5620.39 24.2832 -1110.73
5631.05 24.7623 -1121.27
5625.39 24.2838 -1110.73
5592.64 24.0315 -1091.71
5596.2 24.1911 -1088.2
5597.27 24.0741 -1089.81
5601.89 24.1167 -1087.91
5616.89 24.1205 -1087.91
5605.45 24.277 -1084.39
5543.4 23.9431 -1095.52
5628.67 27.7709 -1179.86
5647.17 27.9406 -1187.47
5657.17 27.9428 -1187.47
5661.79 27.9853 -1185.56
5662.17 27.944 -1187.47
5667.17 27.9451 -1187.47
5681.04 28.0728 -1193.17
5671.79 27.9877 -1185.56
5656.42 28.0256 -1191.27
5661.42 28.0268 -1191.27
5661.04 28.0682 -1193.17
5665.66 28.1107 -1195.07
5676.32 28.5915 -1205.62
5670.66 28.1119 -1195.07
5665.66 28.1106 -1195.07
5686.98 29.0719 -1216.16
5691.61 29.115 -1218.06
5690.54 29.2328 -1219.67
5694.09 29.3936 -1223.19
5699.94 30.4018 -1236.96
5698.71 29.4375 -1225.09
5675.66 28.1129 -1195.07
5680.29 28.1555 -1193.17
5680.66 28.1141 -1195.07
5685.66 28.1153 -1195.07
5699.54 28.2432 -1200.78
5690.29 28.158 -1193.17
5642.88 28.4116 -1193.92
5652.13 28.4978 -1197.72
5657.13 28.4995 -1197.72
5656.76 28.5409 -1199.62
5661.38 28.5841 -1201.52
5672.04 29.0667 -1212.06
5666.38 28.5859 -1201.52
5649.99 28.7332 -1200.94
5654.61 28.777 -1202.85
5653.54 28.8947 -1204.46
5657.1 29.0562 -1207.97
5662.95 30.0662 -1221.75
5661.72 29.1006 -1209.87
5657.1 29.0549 -1207.97
5668.8 31.0709 -1235.52
5672.35 31.2353 -1239.04
5670.75 31.4104 -1240.11
5672.7 31.7499 -1244.7
5672.88 33.3757 -1259.61
5676.26 31.9178 -1248.22
5666.35 29.1424 -1211.78
5671.35 29.1449 -1211.77
5670.97 29.1862 -1213.68
5675.59 29.2301 -1215.58
5686.25 29.7147 -1226.12
5680.59 29.2326 -1215.58
5657.1 29.0522 -1207.97
5680.5 33.0765 -1263.07
5687.61 33.4038 -1270.1
5692.23 33.4505 -1272
5691.16 33.5682 -1273.61
5694.72 33.7325 -1277.13
5700.57 34.751 -1290.9
5699.34 33.7798 -1279.03
5684.4 33.7541 -1272.26
5687.96 33.9213 -1275.77
5686.35 34.0964 -1276.85
5688.31 34.4388 -1281.44
5688.49 36.0729 -1296.35
5691.86 34.6095 -1284.95
5688.31 34.4318 -1281.44
5688.66 37.6796 -1311.26
5690.62 38.0611 -1315.85
5688.73 38.2626 -1316.22
5688.79 38.8457 -1321.19
5683.3 41.0745 -1334.97
5690.75 39.2691 -1325.77
5695.41 34.7662 -1288.46
5700.04 34.8164 -1290.37
5698.97 34.9341 -1291.98
5702.52 35.1019 -1295.49
5708.37 36.1309 -1309.26
5707.14 35.1528 -1297.39
5675.59 29.2246 -1215.58
5685.59 29.2282 -1215.58
5690.22 29.2713 -1213.68
5690.59 29.23 -1215.58
5695.59 29.2318 -1215.58
5709.47 29.3615 -1221.28
5700.22 29.2751 -1213.68
5684.84 29.3109 -1219.38
5689.84 29.3128 -1219.38
5689.47 29.3541 -1221.28
5694.09 29.3974 -1223.19
5704.75 29.8802 -1233.73
5699.09 29.3993 -1223.19
5694.09 29.3973 -1223.19
5715.41 30.3625 -1244.27
5720.03 30.4064 -1246.17
5718.96 30.5241 -1247.78
5722.52 30.6856 -1251.3
5728.37 31.6958 -1265.07
5727.14 30.7301 -1253.2
5704.09 29.4009 -1223.18
5708.71 29.4442 -1221.28
5709.09 29.4028 -1223.18
5714.09 29.4047 -1223.18
5727.96 29.5345 -1228.89
5718.71 29.448 -1221.28
5583.4 23.9464 -1095.52
5601.89 24.1137 -1087.91
5609 24.4328 -1080.88
5610.95 24.7676 -1076.29
5612.55 24.5959 -1077.37
5616.1 24.759 -1073.85
5629.98 24.8971 -1068.15
5618.06 25.0972 -1069.26
5611.14 24.1987 -1084.11
5614.69 24.3589 -1080.59
5615.76 24.2419 -1082.2
5620.39 24.285 -1080.3
5635.39 24.2905 -1080.3
5623.94 24.4459 -1076.79
5620.39 24.2837 -1080.3
5650.39 24.2906 -1080.3
5655.01 24.3332 -1078.4
5655.39 24.2918 -1080.3
5660.39 24.293 -1080.3
5674.26 24.4209 -1086.01
5665.01 24.3356 -1078.4
5627.49 24.6041 -1073.27
5629.44 24.9396 -1068.68
5631.05 24.7679 -1069.76
5634.6 24.9316 -1066.25
5648.47 25.0718 -1060.54
5636.55 25.2705 -1061.65
5603.4 23.9483 -1095.52
5612.64 24.0321 -1091.71
5616.2 24.1917 -1088.2
5617.27 24.0746 -1089.81
5621.89 24.1172 -1087.91
5636.89 24.1208 -1087.91
5625.45 24.2775 -1084.4
5613.4 23.9494 -1095.52
5618.02 23.9913 -1093.61
5618.4 23.95 -1095.52
5623.4 23.9506 -1095.52
5637.27 24.0766 -1101.22
5628.02 23.9926 -1093.61
5623.4 23.9504 -1095.52
5651.14 24.2021 -1106.93
5656.14 24.2027 -1106.93
5655.76 24.2441 -1108.83
5660.39 24.2861 -1110.73
5671.05 24.7652 -1121.27
5665.39 24.2867 -1110.73
5632.64 24.0343 -1091.71
5636.2 24.194 -1088.2
5637.27 24.0769 -1089.81
5641.89 24.1195 -1087.91
5656.89 24.1234 -1087.91
5645.45 24.2799 -1084.4
5623.4 23.9502 -1095.52
5678.88 24.4527 -1118.34
5688.88 24.4538 -1118.34
5693.51 24.4957 -1116.44
5693.88 24.4544 -1118.34
5698.88 24.455 -1118.34
5712.76 24.581 -1124.04
5703.51 24.497 -1116.44
5688.13 24.5366 -1122.14
5693.13 24.5372 -1122.14
5692.76 24.5786 -1124.04
5697.38 24.6206 -1125.95
5708.04 25.0997 -1136.49
5702.38 24.6212 -1125.95
5697.38 24.6205 -1125.95
5718.7 25.5785 -1147.03
5723.32 25.6211 -1148.93
5722.25 25.7388 -1150.55
5725.81 25.8991 -1154.06
5731.66 26.9057 -1167.83
5730.43 25.9424 -1155.96
5707.38 24.6216 -1125.95
5712 24.6636 -1124.04
5712.38 24.6223 -1125.95
5717.38 24.623 -1125.95
5731.25 24.7491 -1131.65
5722 24.665 -1124.04
5641.89 24.1177 -1087.91
5649 24.437 -1080.88
5650.95 24.7718 -1076.29
5652.55 24.6001 -1077.37
5656.1 24.7632 -1073.85
5669.98 24.9015 -1068.15
5658.06 25.1015 -1069.26
5651.14 24.2028 -1084.11
5654.69 24.3631 -1080.59
5655.76 24.2461 -1082.2
5660.39 24.2893 -1080.3
5675.39 24.295 -1080.3
5663.94 24.4502 -1076.79
5660.39 24.2879 -1080.3
5690.39 24.2952 -1080.3
5695.01 24.3378 -1078.4
5695.39 24.2965 -1080.3
5700.39 24.2978 -1080.3
5714.26 24.4258 -1086.01
5705.01 24.3405 -1078.4
5667.49 24.6085 -1073.27
5669.44 24.944 -1068.68
5671.05 24.7723 -1069.76
5674.6 24.9361 -1066.25
5688.47 25.0765 -1060.54
5676.55 25.2751 -1061.65
5321.45 21.9406 -943.367
5349.87 23.2162 -915.252
5357.67 24.5548 -896.885
5357.79 25.6292 -886.944
5355.95 26.3264 -882.346
5357.85 26.2101 -881.978
5357.91 26.7911 -877.012
5363.77 28.0553 -863.263
5356.08 27.5316 -872.42
5361.58 25.3096 -887.711
5361.64 25.8887 -882.745
5363.53 25.729 -883.128
5365.49 26.1485 -878.546
5376.16 26.8962 -868.028
5365.56 26.7687 -873.585
5365.48 26.0644 -878.536
5386.81 27.3033 -857.476
5388.77 27.6845 -852.89
5390.37 27.5136 -853.967
5393.92 27.7238 -850.457
5407.8 28.0047 -844.761
5395.88 28.1087 -845.871
5365.61 27.2226 -868.604
5363.78 27.9616 -864.011
5365.68 27.8447 -863.644
5365.74 28.4668 -858.683
5371.61 29.855 -844.949
5363.92 29.2484 -854.095
5364.08 23.868 -901.197
5367.98 24.5442 -892.014
5368.04 25.0848 -887.044
5369.94 24.925 -887.427
5371.89 25.3058 -882.841
5382.56 25.9356 -872.312
5371.96 25.8882 -877.875
5371.19 24.2009 -894.17
5373.14 24.5425 -889.579
5374.74 24.371 -890.657
5378.3 24.541 -887.144
5392.17 24.7002 -881.442
5380.25 24.8861 -882.554
5378.3 24.5339 -887.143
5406.04 24.8308 -875.737
5409.6 24.998 -872.224
5410.67 24.881 -873.836
5415.29 24.9312 -871.935
5430.29 24.9578 -871.937
5418.85 25.099 -868.422
5382.2 25.2171 -877.961
5382.26 25.7611 -872.991
5384.15 25.6013 -873.375
5386.11 25.9855 -868.789
5396.77 26.6257 -858.262
5386.17 26.5713 -863.824
5378.3 24.5198 -887.141
5433.79 25.0708 -864.324
5440.89 25.3981 -857.297
5442.84 25.7368 -852.705
5444.45 25.5652 -853.783
5448 25.7324 -850.27
5461.87 25.8829 -844.567
5449.95 26.0746 -845.679
5443.03 25.164 -860.522
5446.59 25.3283 -857.008
5447.66 25.2113 -858.62
5452.28 25.2586 -856.719
5467.28 25.2765 -856.721
5455.84 25.4235 -853.206
5452.28 25.2572 -856.719
5482.28 25.2889 -856.722
5486.91 25.3356 -854.821
5487.28 25.2943 -856.722
5492.28 25.2996 -856.723
5506.15 25.4399 -862.429
5496.91 25.3463 -854.822
5459.39 25.5858 -849.692
5461.34 25.9252 -845.101
5462.94 25.7536 -846.179
5466.5 25.9214 -842.665
5480.37 26.074 -836.963
5468.45 26.2644 -838.075
5386.1 25.8722 -868.776
5386.22 26.9535 -858.835
5384.38 27.654 -854.238
5386.28 27.5377 -853.87
5386.34 28.122 -848.904
5392.2 29.3963 -835.156
5384.51 28.8659 -844.312
5390.01 26.6339 -859.602
5390.07 27.2163 -854.637
5391.96 27.0566 -855.021
5393.92 27.4794 -850.439
5404.59 28.2373 -839.923
5393.99 28.1028 -845.478
5393.91 27.3955 -850.429
5415.24 28.6551 -829.372
5417.2 29.0396 -824.786
5418.8 28.8688 -825.863
5422.36 29.0825 -822.354
5436.23 29.3739 -816.659
5424.31 29.4708 -817.768
5394.04 28.5603 -840.498
5392.21 29.3026 -835.905
5394.11 29.1856 -835.538
5394.18 29.811 -830.577
5400.05 31.209 -816.845
5392.35 30.5959 -825.989
5358.44 22.2796 -928.152
5372.65 22.92 -914.096
5376.55 23.5907 -904.912
5376.61 24.1285 -899.942
5378.5 23.9687 -900.325
5380.46 24.3468 -895.738
5391.12 24.9682 -885.208
5380.52 24.9265 -890.772
5379.76 23.2473 -907.068
5381.71 23.5861 -902.477
5383.31 23.4144 -903.555
5386.86 23.5816 -900.042
5400.74 23.7321 -894.339
5388.82 23.9238 -895.451
5386.86 23.5745 -900.041
5414.61 23.8541 -888.633
5418.16 24.0184 -885.119
5419.23 23.9014 -886.732
5423.86 23.9487 -884.831
5438.86 23.9666 -884.832
5427.41 24.1136 -881.317
5390.76 24.2521 -890.858
5390.82 24.7933 -885.888
5392.72 24.6335 -886.272
5394.67 25.015 -881.685
5405.34 25.6467 -871.157
5394.74 25.598 -876.72
5376.93 22.4518 -920.546
5384.04 22.7733 -913.518
5385.99 23.1093 -908.926
5387.59 22.9376 -910.004
5391.15 23.1019 -906.49
5405.02 23.2437 -900.787
5393.1 23.4414 -901.899
5386.18 22.5392 -916.743
5389.73 22.7007 -913.229
5390.81 22.5836 -914.841
5395.43 22.628 -912.94
5410.43 22.6373 -912.941
5398.98 22.7901 -909.426
5395.43 22.6267 -912.94
5425.43 22.6411 -912.942
5430.05 22.6848 -911.04
5430.43 22.6435 -912.942
5435.43 22.646 -912.942
5449.3 22.7776 -918.649
5440.05 22.6898 -911.041
5402.54 22.9496 -905.912
5404.49 23.2862 -901.32
5406.09 23.1145 -902.398
5409.64 23.2795 -898.885
5423.52 23.4233 -893.182
5411.59 23.6196 -894.294
5395.43 22.624 -912.939
5455.43 22.6446 -912.942
5464.68 22.7308 -909.138
5468.23 22.8916 -905.624
5469.3 22.7746 -907.237
5473.93 22.8183 -905.335
5488.93 22.8257 -905.336
5477.48 22.9798 -901.821
5465.43 22.6481 -912.942
5470.05 22.6913 -911.041
5470.43 22.65 -912.942
5475.43 22.6518 -912.943
5489.3 22.7815 -918.649
5480.05 22.695 -911.041
5475.43 22.6517 -912.943
5503.17 22.9108 -924.355
5508.17 22.9126 -924.355
5507.8 22.954 -926.257
5512.42 22.9973 -928.159
5523.08 23.4802 -938.702
5517.42 22.9992 -928.16
5484.68 22.738 -909.139
5488.23 22.8989 -905.625
5489.3 22.7818 -907.238
5493.93 22.8257 -905.337
5508.93 22.8332 -905.338
5497.48 22.9872 -901.823
5409.64 23.2671 -898.883
5413.54 23.939 -889.7
5413.6 24.4775 -884.729
5415.5 24.3177 -885.113
5417.45 24.6964 -880.526
5428.12 25.3197 -869.996
5417.51 25.2767 -875.56
5416.75 23.5957 -891.856
5418.7 23.9351 -887.264
5420.3 23.7635 -888.342
5423.86 23.9313 -884.829
5437.73 24.0838 -879.127
5425.81 24.2742 -880.239
5423.86 23.9242 -884.828
5451.6 24.2079 -873.421
5455.16 24.3728 -869.908
5456.23 24.2558 -871.52
5460.85 24.3038 -869.619
5475.85 24.3237 -869.621
5464.4 24.4694 -866.106
5427.76 24.6031 -875.646
5427.82 25.145 -870.676
5429.71 24.9852 -871.06
5431.67 25.3673 -866.473
5442.33 26.001 -855.945
5431.73 25.9509 -861.508
5395.43 22.6186 -912.938
5515.43 22.6435 -912.941
5533.93 22.8132 -905.334
5541.03 23.1335 -898.305
5542.98 23.4689 -893.713
5544.58 23.2972 -894.791
5548.14 23.4609 -891.278
5562.01 23.6008 -885.574
5550.09 23.7997 -886.686
5543.17 22.8994 -901.53
5546.73 23.0602 -898.016
5547.8 22.9432 -899.629
5552.42 22.987 -897.727
5567.42 22.9943 -897.728
5555.97 23.1485 -894.213
5552.42 22.9856 -897.727
5582.42 22.9963 -897.728
5587.05 23.0394 -895.827
5587.42 22.9981 -897.729
5592.42 22.9999 -897.729
5606.29 23.1297 -903.435
5597.05 23.0432 -895.827
5559.53 23.3073 -890.699
5561.48 23.6433 -886.107
5563.08 23.4716 -887.185
5566.63 23.636 -883.672
5580.51 23.778 -877.968
5568.59 23.9754 -879.081
5535.43 22.6478 -912.941
5544.68 22.7328 -909.138
5548.23 22.893 -905.624
5549.3 22.776 -907.236
5553.93 22.8191 -905.334
5568.93 22.8247 -905.335
5557.48 22.98 -901.82
5545.43 22.6501 -912.942
5550.05 22.6927 -911.04
5550.43 22.6514 -912.942
5555.43 22.6526 -912.942
5569.3 22.7805 -918.648
5560.05 22.6952 -911.04
5555.43 22.6525 -912.942
5583.17 22.9078 -924.354
5588.17 22.9091 -924.354
5587.8 22.9505 -926.256
5592.42 22.9931 -928.158
5603.08 23.4742 -938.701
5597.42 22.9944 -928.158
5564.68 22.7376 -909.138
5568.23 22.8978 -905.624
5569.3 22.7808 -907.237
5573.93 22.824 -905.335
5588.93 22.8297 -905.336
5577.48 22.9849 -901.821
5555.43 22.6522 -912.942
5610.92 23.1623 -935.766
5620.92 23.1646 -935.766
5625.54 23.2071 -933.864
5625.92 23.1658 -935.766
5630.92 23.167 -935.766
5644.79 23.2949 -941.472
5635.54 23.2096 -933.865
5620.16 23.2474 -939.57
5625.16 23.2486 -939.57
5624.79 23.29 -941.472
5629.41 23.3326 -943.374
5640.07 23.8137 -953.917
5634.41 23.3339 -943.374
5629.41 23.3325 -943.374
5650.73 24.2943 -964.46
5655.35 24.3375 -966.362
5654.28 24.4553 -967.974
5657.84 24.6162 -971.488
5663.69 25.6247 -985.263
5662.46 24.6601 -973.39
5639.41 23.3349 -943.374
5644.04 23.3775 -941.472
5644.41 23.3362 -943.374
5649.41 23.3375 -943.374
5663.28 23.4655 -949.08
5654.04 23.3801 -941.472
5573.93 22.8222 -905.335
5581.03 23.1426 -898.307
5582.98 23.478 -893.715
5584.58 23.3064 -894.793
5588.14 23.4701 -891.279
5602.01 23.6102 -885.575
5590.09 23.809 -886.688
5583.17 22.9085 -901.532
5586.73 23.0694 -898.018
5587.8 22.9523 -899.63
5592.42 22.9962 -897.729
5607.42 23.0037 -897.73
5595.97 23.1577 -894.215
5592.42 22.9948 -897.728
5622.42 23.0058 -897.73
5627.05 23.0491 -895.828
5627.42 23.0077 -897.73
5632.42 23.0096 -897.731
5646.29 23.1396 -903.437
5637.05 23.0529 -895.829
5599.53 23.3166 -890.7
5601.48 23.6527 -886.109
5603.08 23.481 -887.187
5606.64 23.6454 -883.673
5620.51 23.7876 -877.97
5608.59 23.985 -879.082
5423.85 23.8995 -884.824
5431.66 25.2407 -866.458
5431.77 26.3164 -856.516
5429.94 27.0142 -851.919
5431.83 26.898 -851.551
5431.9 27.4795 -846.585
5437.76 28.7457 -832.836
5430.06 28.2207 -841.993
5435.56 25.9968 -857.283
5435.63 26.5765 -852.318
5437.52 26.4169 -852.701
5439.48 26.8369 -848.119
5450.14 27.5866 -837.602
5439.54 27.4577 -843.158
5439.47 26.7529 -848.109
5460.8 27.9957 -827.05
5462.75 28.3775 -822.463
5464.35 28.2066 -823.541
5467.91 28.4175 -820.031
5481.78 28.7004 -814.336
5469.86 28.803 -815.445
5439.6 27.9123 -838.178
5437.77 28.6519 -833.584
5439.66 28.535 -833.217
5439.73 29.1577 -828.256
5445.6 30.5478 -814.523
5437.9 29.94 -823.668
5438.07 24.5539 -870.769
5441.97 25.2315 -861.587
5442.03 25.7727 -856.617
5443.92 25.6129 -857
5445.88 25.9944 -852.414
5456.54 26.6261 -841.885
5445.94 26.5774 -847.448
5445.18 24.8882 -863.743
5447.13 25.2305 -859.152
5448.73 25.059 -860.23
5452.28 25.2297 -856.717
5466.16 25.3909 -851.016
5454.24 25.5754 -852.127
5452.28 25.2226 -856.716
5480.03 25.5236 -845.311
5483.58 25.6914 -841.798
5484.65 25.5744 -843.41
5489.28 25.6253 -841.509
5504.28 25.6539 -841.512
5492.83 25.7938 -837.996
5456.19 25.9071 -847.535
5456.25 26.4517 -842.565
5458.14 26.2919 -842.949
5460.09 26.6768 -838.362
5470.76 27.319 -827.836
5460.16 27.2632 -833.397
5452.28 25.2084 -856.714
5507.77 25.7676 -833.899
5514.88 26.0962 -826.872
5516.83 26.4356 -822.281
5518.43 26.264 -823.359
5521.99 26.4318 -819.845
5535.86 26.5844 -814.143
5523.94 26.7747 -815.255
5517.02 25.8621 -830.097
5520.57 26.0271 -826.583
5521.64 25.9101 -828.196
5526.27 25.9581 -826.295
5541.27 25.978 -826.297
5529.82 26.1237 -822.781
5526.27 25.9567 -826.294
5556.27 25.9925 -826.298
5560.89 26.0398 -824.397
5561.27 25.9985 -826.298
5566.27 26.0046 -826.299
5580.14 26.1469 -832.006
5570.89 26.052 -824.398
5533.38 26.2866 -819.267
5535.33 26.6267 -814.676
5536.93 26.4551 -815.754
5540.48 26.6236 -812.241
5554.36 26.7782 -806.539
5542.44 26.9672 -807.651
5460.08 26.5635 -838.349
5460.2 27.646 -828.409
5458.37 28.3473 -823.812
5460.27 28.2309 -823.444
5460.33 28.8158 -818.478
5466.19 30.092 -804.731
5458.5 29.5604 -813.886
5463.99 27.3264 -829.176
5464.06 27.9094 -824.211
5465.95 27.7498 -824.595
5467.91 28.1732 -820.013
5478.58 28.933 -809.497
5467.98 28.7972 -815.053
5467.9 28.0893 -820.003
5489.23 29.3528 -798.947
5491.19 29.738 -794.361
5492.79 29.5672 -795.438
5496.34 29.7816 -791.929
5510.22 30.075 -786.235
5498.3 30.1705 -787.343
5468.03 29.2554 -810.072
5466.2 29.9983 -805.479
5468.1 29.8814 -805.112
5468.16 30.5073 -800.152
5474.03 31.9072 -786.42
5466.34 31.2928 -795.564
4927.46 21.2525 -973.803
5609.65 51.8311 -1648.55
5757.62 53.1814 -1709.41
5837.62 53.1951 -1709.41
5874.61 53.5332 -1694.19
5888.82 54.1732 -1680.13
5892.72 54.8436 -1670.95
5892.78 55.3814 -1665.98
5894.67 55.2216 -1666.36
5896.63 55.5996 -1661.78
5907.29 56.2207 -1651.25
5896.69 56.1792 -1656.81
5895.93 54.5003 -1673.11
5897.88 54.8389 -1668.51
5899.48 54.6673 -1669.59
5903.03 54.8344 -1666.08
5916.91 54.9845 -1660.38
5904.98 55.1765 -1661.49
5903.03 54.8273 -1666.08
5930.78 55.1062 -1654.67
5934.33 55.2704 -1651.16
5935.4 55.1534 -1652.77
5940.02 55.2006 -1650.87
5955.02 55.2181 -1650.87
5943.58 55.3654 -1647.35
5906.93 55.5047 -1656.9
5906.99 56.0458 -1651.93
5908.89 55.886 -1652.31
5910.84 56.2674 -1647.72
5921.51 56.8989 -1637.19
5910.9 56.8503 -1642.76
5893.1 53.7049 -1686.58
5900.21 54.0263 -1679.56
5902.16 54.3622 -1674.96
5903.76 54.1905 -1676.04
5907.32 54.3547 -1672.53
5921.19 54.4962 -1666.82
5909.27 54.694 -1667.94
5902.35 53.7922 -1682.78
5905.9 53.9535 -1679.27
5906.97 53.8365 -1680.88
5911.6 53.8807 -1678.98
5926.6 53.8896 -1678.98
5915.15 54.0427 -1675.46
5911.6 53.8794 -1678.98
5941.6 53.893 -1678.98
5946.22 53.9367 -1677.08
5946.6 53.8954 -1678.98
5951.6 53.8977 -1678.98
5965.47 54.0289 -1684.68
5956.22 53.9414 -1677.08
5918.71 54.2021 -1671.95
5920.66 54.5386 -1667.36
5922.26 54.3669 -1668.43
5925.81 54.5318 -1664.92
5939.68 54.6753 -1659.22
5927.76 54.8718 -1660.33
5911.6 53.8767 -1678.98
5971.6 53.8958 -1678.98
5980.85 53.9818 -1675.17
5984.4 54.1426 -1671.66
5985.47 54.0255 -1673.27
5990.09 54.0692 -1671.37
6005.09 54.0762 -1671.37
5993.65 54.2306 -1667.86
5981.6 53.8992 -1678.98
5986.22 53.9422 -1677.07
5986.6 53.9009 -1678.98
5991.6 53.9026 -1678.98
6005.47 54.0319 -1684.68
5996.22 53.9457 -1677.07
5991.6 53.9025 -1678.98
6019.34 54.1608 -1690.39
6024.34 54.1625 -1690.39
6023.97 54.2039 -1692.29
6028.59 54.247 -1694.19
6039.25 54.7296 -1704.73
6033.59 54.2488 -1694.19
6000.85 53.9886 -1675.17
6004.4 54.1494 -1671.66
6005.47 54.0323 -1673.27
6010.09 54.076 -1671.37
6025.09 54.0832 -1671.37
6013.65 54.2375 -1667.86
5925.81 54.5194 -1664.92
5929.71 55.1911 -1655.74
5929.77 55.7295 -1650.77
5931.66 55.5697 -1651.15
5933.62 55.9483 -1646.56
5944.28 56.5714 -1636.03
5933.68 56.5286 -1641.6
5932.92 54.8478 -1657.89
5934.87 55.1871 -1653.3
5936.47 55.0155 -1654.38
5940.02 55.1832 -1650.87
5953.9 55.3354 -1645.16
5941.98 55.526 -1646.27
5940.02 55.1761 -1650.86
5967.77 55.4591 -1639.46
5971.32 55.624 -1635.94
5972.39 55.507 -1637.55
5977.02 55.5548 -1635.65
5992.02 55.5744 -1635.66
5980.57 55.7203 -1632.14
5943.93 55.8548 -1641.68
5943.99 56.3966 -1636.71
5945.88 56.2368 -1637.1
5947.83 56.6188 -1632.51
5958.5 57.2523 -1621.98
5947.9 57.2024 -1627.54
5877.62 53.2024 -1709.41
5896.11 53.3717 -1701.8
5903.22 53.6918 -1694.77
5905.17 54.0271 -1690.18
5906.77 53.8554 -1691.26
5910.32 54.019 -1687.74
5924.2 54.1586 -1682.04
5912.27 54.3577 -1683.15
5905.36 53.4577 -1698
5908.91 53.6184 -1694.48
5909.98 53.5014 -1696.09
5914.61 53.545 -1694.19
5929.61 53.552 -1694.19
5918.16 53.7064 -1690.68
5914.61 53.5437 -1694.19
5944.61 53.5536 -1694.19
5949.23 53.5967 -1692.29
5949.61 53.5553 -1694.19
5954.61 53.557 -1694.19
5968.48 53.6864 -1699.9
5959.23 53.6002 -1692.29
5921.71 53.8651 -1687.16
5923.66 54.2011 -1682.57
5925.27 54.0294 -1683.65
5928.82 54.1936 -1680.14
5942.69 54.3353 -1674.43
5930.77 54.533 -1675.54
5897.62 53.2063 -1709.41
5906.86 53.2911 -1705.6
5910.42 53.4512 -1702.09
5911.49 53.3341 -1703.7
5916.11 53.3772 -1701.8
5931.11 53.3823 -1701.8
5919.66 53.538 -1698.28
5907.62 53.2084 -1709.41
5912.24 53.2508 -1707.5
5912.62 53.2095 -1709.41
5917.62 53.2106 -1709.41
5931.49 53.3381 -1715.11
5922.24 53.2531 -1707.5
5917.62 53.2105 -1709.41
5945.36 53.4651 -1720.82
5950.36 53.4662 -1720.82
5949.98 53.5076 -1722.72
5954.61 53.5501 -1724.62
5965.27 54.0307 -1735.16
5959.61 53.5512 -1724.62
5926.86 53.2953 -1705.6
5930.42 53.4555 -1702.09
5931.49 53.3384 -1703.7
5936.11 53.3816 -1701.8
5951.11 53.3869 -1701.8
5939.66 53.5424 -1698.28
5917.62 53.2102 -1709.41
5973.1 53.7187 -1732.23
5983.1 53.7208 -1732.23
5987.73 53.7632 -1730.33
5988.1 53.7219 -1732.23
5993.1 53.723 -1732.23
6006.98 53.8505 -1737.93
5997.73 53.7655 -1730.33
5982.35 53.8036 -1736.03
5987.35 53.8047 -1736.03
5986.98 53.8461 -1737.93
5991.6 53.8886 -1739.83
6002.26 54.3692 -1750.38
5996.6 53.8897 -1739.83
5991.6 53.8884 -1739.83
6012.92 54.8494 -1760.92
6017.54 54.8925 -1762.82
6016.47 55.0102 -1764.43
6020.03 55.1711 -1767.95
6025.88 56.1791 -1781.72
6024.65 55.2149 -1769.85
6001.6 53.8906 -1739.83
6006.22 53.9331 -1737.93
6006.6 53.8918 -1739.83
6011.6 53.8929 -1739.83
6025.47 54.0206 -1745.54
6016.22 53.9355 -1737.93
5936.11 53.3797 -1701.8
5943.22 53.7 -1694.77
5945.17 54.0353 -1690.18
5946.77 53.8636 -1691.26
5950.32 54.0272 -1687.74
5964.2 54.1671 -1682.04
5952.27 54.366 -1683.15
5945.36 53.4658 -1697.99
5948.91 53.6266 -1694.48
5949.98 53.5096 -1696.09
5954.61 53.5533 -1694.19
5969.61 53.5605 -1694.19
5958.16 53.7148 -1690.68
5954.61 53.552 -1694.19
5984.61 53.5622 -1694.19
5989.23 53.6054 -1692.29
5989.61 53.564 -1694.19
5994.61 53.5658 -1694.19
6008.48 53.6953 -1699.9
5999.23 53.609 -1692.29
5961.71 53.8735 -1687.16
5963.66 54.2095 -1682.57
5965.27 54.0378 -1683.65
5968.82 54.2021 -1680.14
5982.69 54.344 -1674.43
5970.77 54.5416 -1675.54
5917.62 53.2097 -1709.41
6028.59 54.2253 -1755.05
6048.59 54.2292 -1755.05
6057.84 54.3139 -1751.24
6061.39 54.4741 -1747.73
6062.46 54.357 -1749.34
6067.09 54.4001 -1747.44
6082.09 54.4052 -1747.44
6070.64 54.5608 -1743.93
6058.59 54.2312 -1755.05
6063.22 54.2737 -1753.15
6063.59 54.2323 -1755.05
6068.59 54.2334 -1755.05
6082.46 54.3609 -1760.75
6073.22 54.2759 -1753.15
6068.59 54.2333 -1755.05
6096.34 54.4879 -1766.46
6101.34 54.489 -1766.46
6100.96 54.5304 -1768.36
6105.58 54.5729 -1770.26
6116.24 55.0536 -1780.8
6110.58 54.574 -1770.26
6077.84 54.3182 -1751.24
6081.39 54.4784 -1747.73
6082.46 54.3613 -1749.34
6087.09 54.4044 -1747.44
6102.09 54.4098 -1747.44
6090.64 54.5653 -1743.93
6047.09 54.3948 -1762.66
6057.09 54.3968 -1762.66
6061.71 54.4393 -1760.75
6062.09 54.3979 -1762.66
6067.09 54.399 -1762.65
6080.96 54.5265 -1768.36
6071.71 54.4415 -1760.75
6056.34 54.4796 -1766.46
6061.34 54.4807 -1766.46
6060.96 54.5221 -1768.36
6065.58 54.5646 -1770.26
6076.24 55.0452 -1780.8
6070.58 54.5657 -1770.26
6065.58 54.5645 -1770.26
6086.9 55.5254 -1791.35
6091.53 55.5685 -1793.25
6090.46 55.6862 -1794.86
6094.01 55.8471 -1798.38
6099.86 56.8551 -1812.15
6098.63 55.8908 -1800.28
6075.58 54.5667 -1770.26
6080.21 54.6092 -1768.36
6080.58 54.5678 -1770.26
6085.58 54.569 -1770.26
6099.46 54.6966 -1775.97
6090.21 54.6115 -1768.36
6065.58 54.5642 -1770.26
6108.22 56.4855 -1812.43
6117.47 56.5716 -1816.24
6122.47 56.5733 -1816.24
6122.09 56.6147 -1818.14
6126.72 56.6578 -1820.04
6137.38 57.1402 -1830.58
6131.72 56.6595 -1820.04
6115.33 56.807 -1819.46
6119.95 56.8507 -1821.36
6118.88 56.9684 -1822.97
6122.44 57.1299 -1826.49
6128.29 58.1397 -1840.26
6127.06 57.1743 -1828.39
6122.44 57.1285 -1826.49
6134.14 59.1443 -1854.04
6137.69 59.3086 -1857.55
6136.09 59.4837 -1858.63
6138.04 59.8231 -1863.22
6138.22 61.4488 -1878.13
6141.59 59.9909 -1866.73
6131.68 57.216 -1830.29
6136.68 57.2184 -1830.29
6136.31 57.2597 -1832.19
6140.93 57.3035 -1834.09
6151.59 57.788 -1844.64
6145.93 57.306 -1834.09
6085.58 54.5684 -1770.26
6094.83 54.6533 -1766.46
6098.38 54.8135 -1762.94
6099.46 54.6964 -1764.56
6104.08 54.7395 -1762.65
6119.08 54.7448 -1762.65
6107.63 54.9004 -1759.14
6095.58 54.5706 -1770.26
6100.21 54.6131 -1768.36
6100.58 54.5717 -1770.26
6105.58 54.5729 -1770.26
6119.46 54.7005 -1775.97
6110.21 54.6154 -1768.36
6105.58 54.5728 -1770.26
6133.33 54.8277 -1781.67
6138.33 54.8289 -1781.67
6137.95 54.8703 -1783.57
6142.58 54.9128 -1785.48
6153.24 55.3936 -1796.02
6147.58 54.914 -1785.48
6114.83 54.6578 -1766.46
6118.38 54.818 -1762.94
6119.46 54.7009 -1764.56
6124.08 54.7441 -1762.65
6139.08 54.7496 -1762.65
6127.63 54.905 -1759.14
5954.61 53.5483 -1694.19
5968.82 54.1886 -1680.13
5972.72 54.8591 -1670.95
5972.78 55.3969 -1665.98
5974.67 55.2371 -1666.36
5976.63 55.6152 -1661.77
5987.29 56.2365 -1651.24
5976.69 56.1949 -1656.81
5975.93 54.5157 -1673.1
5977.88 54.8545 -1668.51
5979.48 54.6828 -1669.59
5983.03 54.8499 -1666.08
5996.91 55.0003 -1660.37
5984.98 55.1922 -1661.49
5983.03 54.8429 -1666.08
6010.78 55.1222 -1654.67
6014.33 55.2864 -1651.15
6015.4 55.1694 -1652.77
6020.03 55.2166 -1650.87
6035.03 55.2343 -1650.87
6023.58 55.3815 -1647.35
5986.93 55.5203 -1656.89
5986.99 56.0616 -1651.92
5988.89 55.9018 -1652.31
5990.84 56.2832 -1647.72
6001.51 56.9149 -1637.19
5990.91 56.8662 -1642.76
5973.1 53.7203 -1686.58
5980.21 54.0418 -1679.55
5982.16 54.3777 -1674.96
5983.76 54.206 -1676.04
5987.32 54.3702 -1672.53
6001.19 54.5119 -1666.82
5989.27 54.7096 -1667.94
5982.35 53.8076 -1682.78
5985.9 53.969 -1679.26
5986.97 53.852 -1680.88
5991.6 53.8963 -1678.98
6006.6 53.9054 -1678.98
5995.15 54.0584 -1675.46
5991.6 53.895 -1678.98
6021.6 53.909 -1678.98
6026.22 53.9527 -1677.07
6026.6 53.9114 -1678.98
6031.6 53.9138 -1678.98
6045.47 54.0452 -1684.68
6036.22 53.9576 -1677.08
5998.71 54.2178 -1671.95
6000.66 54.5544 -1667.36
6002.26 54.3827 -1668.43
6005.81 54.5476 -1664.92
6019.68 54.6913 -1659.22
6007.76 54.8877 -1660.33
5991.6 53.8923 -1678.98
6051.6 53.9122 -1678.98
6060.85 53.9983 -1675.17
6064.4 54.1591 -1671.66
6065.47 54.042 -1673.27
6070.09 54.0857 -1671.37
6085.09 54.0929 -1671.37
6073.65 54.2472 -1667.85
6061.6 53.9156 -1678.98
6066.22 53.9587 -1677.07
6066.6 53.9174 -1678.98
6071.6 53.9191 -1678.98
6085.47 54.0487 -1684.68
6076.22 53.9623 -1677.07
6071.6 53.919 -1678.98
6099.34 54.1777 -1690.39
6104.34 54.1795 -1690.39
6103.97 54.2209 -1692.29
6108.59 54.2641 -1694.19
6119.25 54.7468 -1704.73
6113.59 54.2659 -1694.19
6080.85 54.0052 -1675.17
6084.4 54.1661 -1671.66
6085.47 54.049 -1673.27
6090.09 54.0928 -1671.37
6105.09 54.1002 -1671.37
6093.65 54.2543 -1667.85
6005.81 54.5352 -1664.92
6009.71 55.207 -1655.73
6009.77 55.7455 -1650.76
6011.67 55.5857 -1651.15
6013.62 55.9644 -1646.56
6024.28 56.5876 -1636.03
6013.68 56.5447 -1641.6
6012.92 54.8637 -1657.89
6014.87 55.2031 -1653.3
6016.47 55.0315 -1654.38
6020.03 55.1993 -1650.86
6033.9 55.3516 -1645.16
6021.98 55.5421 -1646.27
6020.02 55.1922 -1650.86
6047.77 55.4755 -1639.46
6051.32 55.6404 -1635.94
6052.39 55.5234 -1637.55
6057.02 55.5713 -1635.65
6072.02 55.5911 -1635.65
6060.57 55.7369 -1632.14
6023.93 55.871 -1641.68
6023.99 56.4128 -1636.71
6025.88 56.253 -1637.09
6027.83 56.6351 -1632.51
6038.5 57.2687 -1621.98
6027.9 57.2187 -1627.54
5831.6 53.8574 -1739.84
5871.6 53.8647 -1739.84
5890.1 54.034 -1732.23
5897.2 54.3542 -1725.2
5899.15 54.6895 -1720.61
5900.75 54.5178 -1721.69
5904.31 54.6813 -1718.17
5918.18 54.821 -1712.47
5906.26 55.0201 -1713.58
5899.34 54.12 -1728.42
5902.9 54.2808 -1724.91
5903.97 54.1637 -1726.52
5908.59 54.2074 -1724.62
5923.59 54.2144 -1724.62
5912.14 54.3688 -1721.11
5908.59 54.206 -1724.62
5938.59 54.216 -1724.62
5943.22 54.259 -1722.72
5943.59 54.2177 -1724.62
5948.59 54.2194 -1724.62
5962.46 54.3487 -1730.33
5953.22 54.2625 -1722.72
5915.7 54.5275 -1717.59
5917.65 54.8634 -1713
5919.25 54.6918 -1714.08
5922.8 54.856 -1710.56
5936.68 54.9977 -1704.86
5924.75 55.1954 -1705.97
5891.6 53.8686 -1739.84
5900.85 53.9534 -1736.03
5904.4 54.1135 -1732.52
5905.47 53.9965 -1734.13
5910.1 54.0395 -1732.23
5925.1 54.0447 -1732.23
5913.65 54.2003 -1728.71
5901.6 53.8707 -1739.84
5906.22 53.9132 -1737.93
5906.6 53.8718 -1739.84
5911.6 53.8729 -1739.84
5925.47 54.0004 -1745.54
5916.22 53.9154 -1737.93
5911.6 53.8728 -1739.84
5939.34 54.1274 -1751.25
5944.34 54.1285 -1751.25
5943.97 54.1699 -1753.15
5948.59 54.2124 -1755.05
5959.25 54.693 -1765.59
5953.59 54.2135 -1755.05
5920.85 53.9577 -1736.03
5924.4 54.1179 -1732.52
5925.47 54.0008 -1734.13
5930.1 54.0439 -1732.23
5945.1 54.0492 -1732.23
5933.65 54.2047 -1728.71
5911.6 53.8725 -1739.84
5967.09 54.381 -1762.66
5977.09 54.3831 -1762.66
5981.71 54.4255 -1760.75
5982.09 54.3842 -1762.66
5987.09 54.3853 -1762.66
6000.96 54.5127 -1768.36
5991.71 54.4278 -1760.75
5976.34 54.4659 -1766.46
5981.34 54.467 -1766.46
5980.96 54.5084 -1768.36
5985.58 54.5508 -1770.26
5996.24 55.0315 -1780.81
5990.58 54.552 -1770.26
5985.58 54.5507 -1770.26
6006.9 55.5117 -1791.35
6011.53 55.5548 -1793.25
6010.46 55.6725 -1794.86
6014.01 55.8333 -1798.38
6019.86 56.8414 -1812.15
6018.63 55.8771 -1800.28
5995.58 54.5529 -1770.26
6000.21 54.5954 -1768.36
6000.58 54.5541 -1770.26
6005.58 54.5552 -1770.26
6019.46 54.6829 -1775.97
6010.21 54.5978 -1768.36
5930.1 54.0421 -1732.23
5937.2 54.3623 -1725.2
5939.15 54.6977 -1720.61
5940.75 54.526 -1721.68
5944.31 54.6896 -1718.17
5958.18 54.8294 -1712.47
5946.26 55.0284 -1713.58
5939.34 54.1282 -1728.42
5942.9 54.289 -1724.91
5943.97 54.1719 -1726.52
5948.59 54.2157 -1724.62
5963.59 54.2228 -1724.62
5952.14 54.3771 -1721.11
5948.59 54.2143 -1724.62
5978.59 54.2246 -1724.62
5983.22 54.2677 -1722.72
5983.59 54.2264 -1724.62
5988.59 54.2282 -1724.62
6002.46 54.3577 -1730.33
5993.22 54.2713 -1722.72
5955.7 54.5359 -1717.59
5957.65 54.8719 -1713
5959.25 54.7002 -1714.08
5962.8 54.8645 -1710.56
5976.68 55.0064 -1704.86
5964.76 55.204 -1705.97
5868.59 54.1959 -1755.05
5888.59 54.1998 -1755.05
5897.84 54.2846 -1751.25
5901.39 54.4447 -1747.73
5902.46 54.3276 -1749.34
5907.09 54.3707 -1747.44
5922.09 54.3758 -1747.44
5910.64 54.5315 -1743.93
5898.59 54.2019 -1755.05
5903.22 54.2443 -1753.15
5903.59 54.203 -1755.05
5908.59 54.2041 -1755.05
5922.46 54.3315 -1760.76
5913.22 54.2466 -1753.15
5908.59 54.2039 -1755.05
5936.34 54.4585 -1766.46
5941.34 54.4596 -1766.46
5940.96 54.501 -1768.36
5945.58 54.5435 -1770.26
5956.24 55.0241 -1780.81
5950.58 54.5447 -1770.26
5917.84 54.2888 -1751.25
5921.39 54.449 -1747.73
5922.46 54.3319 -1749.34
5927.09 54.3751 -1747.44
5942.09 54.3804 -1747.44
5930.64 54.5359 -1743.93
5887.09 54.3654 -1762.66
5897.09 54.3674 -1762.66
5901.71 54.4099 -1760.76
5902.09 54.3685 -1762.66
5907.09 54.3696 -1762.66
5920.96 54.4971 -1768.36
5911.71 54.4121 -1760.76
5896.34 54.4502 -1766.46
5901.34 54.4513 -1766.46
5900.96 54.4927 -1768.36
5905.58 54.5352 -1770.27
5916.24 55.0158 -1780.81
5910.58 54.5364 -1770.26
5905.58 54.5351 -1770.27
5926.9 55.496 -1791.35
5931.53 55.5391 -1793.25
5930.46 55.6568 -1794.86
5934.01 55.8176 -1798.38
5939.86 56.8257 -1812.15
5938.63 55.8614 -1800.28
5915.58 54.5373 -1770.26
5920.21 54.5798 -1768.36
5920.58 54.5384 -1770.26
5925.58 54.5396 -1770.26
5939.46 54.6672 -1775.97
5930.21 54.5821 -1768.36
5905.58 54.5348 -1770.27
5948.22 56.456 -1812.43
5957.47 56.5421 -1816.24
5962.47 56.5438 -1816.24
5962.1 56.5852 -1818.14
5966.72 56.6283 -1820.04
5977.38 57.1107 -1830.58
5971.72 56.6301 -1820.04
5955.33 56.7775 -1819.46
5959.95 56.8212 -1821.36
5958.88 56.939 -1822.98
5962.44 57.1004 -1826.49
5968.29 58.1102 -1840.26
5967.06 57.1448 -1828.39
5962.44 57.0991 -1826.49
5974.14 59.1148 -1854.04
5977.69 59.279 -1857.55
5976.09 59.4542 -1858.63
5978.04 59.7936 -1863.22
5978.22 61.4192 -1878.13
5981.6 59.9614 -1866.74
5971.68 57.1865 -1830.29
5976.68 57.1889 -1830.29
5976.31 57.2303 -1832.19
5980.93 57.274 -1834.1
5991.59 57.7585 -1844.64
5985.93 57.2765 -1834.1
5925.58 54.539 -1770.26
5934.83 54.6239 -1766.46
5938.39 54.7841 -1762.95
5939.46 54.667 -1764.56
5944.08 54.7101 -1762.66
5959.08 54.7155 -1762.66
5947.63 54.871 -1759.14
5935.58 54.5412 -1770.26
5940.21 54.5837 -1768.36
5940.58 54.5423 -1770.26
5945.58 54.5435 -1770.26
5959.46 54.6711 -1775.97
5950.21 54.5861 -1768.36
5945.58 54.5434 -1770.26
5973.33 54.7983 -1781.67
5978.33 54.7995 -1781.67
5977.95 54.8408 -1783.58
5982.58 54.8834 -1785.48
5993.24 55.3642 -1796.02
5987.58 54.8846 -1785.48
5954.83 54.6284 -1766.46
5958.39 54.7886 -1762.94
5959.46 54.6716 -1764.56
5964.08 54.7147 -1762.66
5979.08 54.7202 -1762.66
5967.63 54.8757 -1759.14
5905.58 54.5344 -1770.27
5990.86 58.3754 -1854.6
6009.36 58.5473 -1862.21
6019.36 58.5506 -1862.21
6023.98 58.5937 -1860.31
6024.36 58.5523 -1862.21
6029.36 58.554 -1862.21
6043.23 58.6833 -1867.91
6033.98 58.5972 -1860.31
6018.61 58.6334 -1866.01
6023.61 58.6351 -1866.01
6023.23 58.6765 -1867.92
6027.85 58.7196 -1869.82
6038.51 59.202 -1880.36
6032.85 58.7213 -1869.82
6027.85 58.7195 -1869.82
6049.17 59.684 -1890.9
6053.8 59.7277 -1892.8
6052.73 59.8455 -1894.42
6056.28 60.0069 -1897.93
6062.13 61.0167 -1911.7
6060.9 60.0513 -1899.83
6037.85 58.7229 -1869.82
6042.48 58.766 -1867.91
6042.85 58.7247 -1869.82
6047.85 58.7264 -1869.82
6061.73 58.8559 -1875.52
6052.48 58.7696 -1867.91
6005.07 59.0182 -1868.66
6014.32 59.1055 -1872.46
6019.32 59.1078 -1872.46
6018.95 59.1492 -1874.37
6023.57 59.1929 -1876.27
6034.23 59.6772 -1886.81
6028.57 59.1953 -1876.27
6012.18 59.3409 -1875.69
6016.81 59.3852 -1877.59
6015.73 59.503 -1879.2
6019.29 59.665 -1882.72
6025.14 60.6766 -1896.49
6023.91 59.71 -1884.62
6019.29 59.6637 -1882.72
6030.99 61.683 -1910.27
6034.55 61.8478 -1913.78
6032.94 62.023 -1914.86
6034.89 62.363 -1919.45
6035.07 63.9904 -1934.36
6038.45 62.5314 -1922.96
6028.54 59.7523 -1886.52
6033.54 59.7553 -1886.52
6033.16 59.7967 -1888.42
6037.78 59.8411 -1890.32
6048.45 60.3274 -1900.86
6042.78 59.8442 -1890.32
6019.29 59.661 -1882.72
6042.69 63.6917 -1937.82
6049.8 64.0202 -1944.84
6054.43 64.0674 -1946.74
6053.36 64.1851 -1948.36
6056.91 64.35 -1951.87
6062.76 65.37 -1965.64
6061.53 64.3978 -1953.77
6046.6 64.3705 -1947
6050.15 64.5382 -1950.51
6048.55 64.7133 -1951.59
6050.5 65.0562 -1956.18
6050.68 66.6919 -1971.09
6054.05 65.2275 -1959.69
6050.5 65.0492 -1956.18
6050.86 68.3001 -1986
6052.81 68.6822 -1990.59
6050.92 68.8837 -1990.97
6050.99 69.4673 -1995.93
6045.5 71.6977 -2009.71
6052.95 69.8912 -2000.51
6057.61 65.3847 -1963.21
6062.23 65.4355 -1965.11
6061.16 65.5531 -1966.72
6064.71 65.7216 -1970.23
6070.57 66.7521 -1984
6069.34 65.773 -1972.13
6037.78 59.8356 -1890.32
6047.78 59.8403 -1890.32
6052.41 59.884 -1888.42
6052.78 59.8427 -1890.32
6057.78 59.8451 -1890.32
6071.66 59.9764 -1896.03
6062.41 59.8889 -1888.42
6047.03 59.9231 -1894.13
6052.03 59.9255 -1894.13
6051.66 59.9668 -1896.03
6056.28 60.0106 -1897.93
