-406.8079833984375 -463.5843505859375 26.91327857971191
-406.3059387207031 -464.0091552734375 26.90923500061035
-404.5522766113281 -467.0876159667969 25.83851051330566
-404.4573059082031 -464.6434936523438 27.4954891204834
-405.6180114746094 -468.4684143066406 24.30218315124512
-405.6719055175781 -468.12841796875 24.49620246887207
-406.4188842773438 -466.7523803710938 24.98864936828613
-406.786376953125 -465.4539489746094 25.63992118835449
-407.2637023925781 -463.7570190429688 26.49249076843262
-405.6271362304688 -465.3052062988281 26.3784351348877
-405.2766723632812 -465.0048522949219 26.75842475891113
-406.2982177734375 -467.8063049316406 24.3284740447998
-403.8349304199219 -466.3229675292969 26.6892261505127
-406.9764709472656 -463.7036437988281 26.63478660583496
-406.0284729003906 -464.9627075195312 26.33613777160645
-404.4357299804688 -465.833251953125 26.64208793640137
-405.1777038574219 -463.2947387695312 27.88873863220215
-406.1719970703125 -467.9486083984375 24.27671241760254
-405.9452514648438 -467.3902282714844 24.76519203186035
-406.3605346679688 -463.7492065429688 26.90026664733887
-404.5022888183594 -467.0810241699219 25.7636775970459
-404.9989624023438 -464.9855041503906 26.8386287689209
-406.0892028808594 -468.0319213867188 24.23650550842285
-406.7575073242188 -463.4775085449219 26.80500602722168
-405.6356201171875 -465.1582336425781 26.34126853942871
-404.5384216308594 -466.9666137695312 25.78147315979004
-405.1833801269531 -465.0674438476562 26.63598442077637
-404.9864196777344 -464.3518981933594 27.20512580871582
-406.4147338867188 -466.9647827148438 24.70643043518066
-404.2012634277344 -463.5891723632812 28.12933158874512
-405.3952331542969 -467.5443420410156 24.89930534362793
-405.1177978515625 -465.1685180664062 26.56537055969238
-404.4833068847656 -466.1077880859375 26.31549644470215
-405.8043212890625 -468.3587646484375 24.12271690368652
-405.267822265625 -467.7221984863281 24.8248119354248
-407.0652465820312 -463.8719787597656 26.2800464630127
-406.6505126953125 -463.5809936523438 26.69442558288574
-406.2709045410156 -463.1812133789062 27.15841865539551
-405.6700134277344 -463.8721008300781 27.03894233703613
-405.6830749511719 -468.2343444824219 24.23837089538574
-405.096435546875 -468.5419006347656 24.36879920959473
-405.4363708496094 -467.4188842773438 24.89034461975098
-406.2841491699219 -465.6405334472656 25.5449161529541
-406.7660827636719 -463.8510437011719 26.40870094299316
-405.492919921875 -464.2220153808594 26.86913108825684
-405.3795776367188 -463.8673706054688 27.1553897857666
-405.3124694824219 -463.3568420410156 27.51437950134277
-407.7067565917969 -465.4032897949219 24.86686515808105
-406.6773376464844 -463.9706115722656 26.33577156066895
-405.7351989746094 -464.2281494140625 26.69496726989746
-405.7034606933594 -468.4242858886719 24.05116844177246
-406.6711730957031 -464.4395751953125 26.0005054473877
-406.641845703125 -463.4493103027344 26.63400840759277
-404.70849609375 -466.8444519042969 25.58676338195801
-405.6173400878906 -463.8325500488281 26.94925880432129
-405.538330078125 -466.4286804199219 25.34881782531738
-405.7294006347656 -462.8487243652344 27.44858741760254
-408.1286315917969 -465.1072387695312 24.69182014465332
-405.2235717773438 -467.3197326660156 24.93914604187012
-405.43115234375 -464.1519470214844 26.75720405578613
-406.3528747558594 -467.4736633300781 24.18368721008301
-407.5935668945312 -465.4226379394531 24.74909782409668
-405.5284118652344 -467.4489135742188 24.65541648864746
-404.9613037109375 -466.6354370117188 25.46560859680176
-404.6730651855469 -466.8042297363281 25.52202796936035
-404.1346435546875 -465.5369873046875 26.58486747741699
-406.0791320800781 -467.8199768066406 24.09375953674316
-404.02880859375 -463.5920104980469 27.82815742492676
-402.9439086914062 -465.8529968261719 27.05026435852051
-406.2704772949219 -463.4142150878906 26.65912055969238
-405.3783264160156 -464.1702575683594 26.68256187438965
-407.7839050292969 -465.8351745605469 24.31299781799316
-403.973876953125 -465.9332275390625 26.39233589172363
-403.5604553222656 -465.8869323730469 26.6488094329834
-405.0164489746094 -468.2108764648438 24.41518211364746
-404.9668884277344 -467.9919128417969 24.57445335388184
-405.1765441894531 -464.5962219238281 26.49612617492676
-405.5946655273438 -462.9371948242188 27.26220893859863
-406.5415954589844 -467.4414978027344 24.00422859191895
-405.2599182128906 -468.0958251953125 24.32272529602051
-404.7748718261719 -464.283203125 26.85664176940918
-406.28125 -467.4664611816406 24.09848976135254
-403.8752746582031 -464.7506713867188 27.07500648498535
-405.4410400390625 -467.1384887695312 24.75862312316895
-406.6767578125 -463.5887145996094 26.18173408508301
-405.6260375976562 -462.7323303222656 27.26096534729004
-406.001708984375 -468.1038513183594 23.84623527526855
-407.777099609375 -464.9894714355469 24.6998348236084
-406.7499389648438 -463.9378051757812 25.88871574401855
-404.5303955078125 -466.9231567382812 25.35704612731934
-404.4944763183594 -466.5602416992188 25.59072685241699
-405.1111450195312 -464.5916137695312 26.39608192443848
-404.2377319335938 -466.1700134277344 25.95094871520996
-407.8719482421875 -465.2133178710938 24.47001457214355
-407.6714782714844 -465.1025390625 24.64597511291504
-406.4510498046875 -463.9277038574219 26.00914192199707
-404.2521057128906 -466.0901489257812 25.95353507995605
-406.0671997070312 -467.9679260253906 23.82856178283691
-403.3628540039062 -466.2577514648438 26.34729957580566
-407.9283447265625 -464.2693481445312 24.94756507873535
-405.75634765625 -465.6951293945312 25.32171058654785
-404.6240234375 -464.4598693847656 26.6542911529541
-406.5926208496094 -466.9263000488281 24.10798454284668
-405.6527404785156 -464.9103393554688 25.79130744934082
-405.21728515625 -462.7923278808594 27.24650001525879
-406.4635925292969 -467.0811462402344 24.05988883972168
-407.5782470703125 -465.1358337402344 24.55754661560059
-405.4438171386719 -467.3259582519531 24.48465919494629
-404.6869506835938 -466.4346313476562 25.41419792175293
-404.3881225585938 -466.6446533203125 25.4592456817627
-404.8869323730469 -464.3161315917969 26.50301170349121
-406.4008178710938 -467.1392822265625 24.02539253234863
-407.4893798828125 -465.2275390625 24.50970268249512
-407.2838439941406 -465.1300354003906 24.67905616760254
-404.7692565917969 -468.1085815429688 24.37810325622559
-405.1438598632812 -462.8602905273438 27.14394950866699
-404.4353637695312 -463.3124694824219 27.27911949157715
-403.4424743652344 -464.9793395996094 26.88226890563965
-407.5630187988281 -463.7546691894531 25.26130485534668
-407.9413146972656 -464.9110107421875 24.35531806945801
-407.6053466796875 -463.6402893066406 25.25393104553223
-405.4052734375 -466.1685180664062 25.05550956726074
-407.8209228515625 -463.2359619140625 25.31106376647949
-405.9774169921875 -465.4954528808594 25.07533073425293
-405.0322570800781 -465.5068969726562 25.59212684631348
-404.3847351074219 -466.488525390625 25.40464973449707
-407.43310546875 -464.3173828125 24.88431358337402
-402.7927856445312 -465.5924682617188 26.77802848815918
-405.0601806640625 -466.3467102050781 25.0772647857666
-405.5480041503906 -463.7177124023438 26.25926399230957
-406.3537292480469 -467.0711059570312 23.92658042907715
-405.5270080566406 -464.8641967773438 25.59479713439941
-404.6959838867188 -464.4940795898438 26.24925804138184
-406.0395202636719 -466.8470764160156 24.19114875793457
-405.9375 -465.4578857421875 25.00409889221191
-404.2707824707031 -466.6411437988281 25.28276252746582
-407.6604309082031 -465.5271606445312 23.9689998626709
-406.4428405761719 -466.5475769042969 24.09287071228027
-407.0948791503906 -464.7442932128906 24.70568656921387
-405.5978698730469 -466.4496765136719 24.61404991149902
-405.1342468261719 -466.9051513671875 24.62490653991699
-405.7800598144531 -465.2554626464844 25.15799522399902
-404.2669067382812 -466.0956115722656 25.53504371643066
-406.4460144042969 -465.3521728515625 24.69871711730957
-404.8078308105469 -467.8221435546875 24.28197288513184
-406.690185546875 -463.4416198730469 25.58775901794434
-405.7044982910156 -462.4015808105469 26.68100166320801
-407.8575744628906 -464.7884216308594 24.17814826965332
-406.9234619140625 -465.3719177246094 24.38543891906738
-405.4094543457031 -466.7212829589844 24.50615882873535
-405.4568481445312 -464.8358764648438 25.48326301574707
-405.0679931640625 -464.6009521484375 25.82344245910645
-404.5640869140625 -464.6260681152344 26.0758228302002
-403.595458984375 -464.6705932617188 26.5880298614502
-407.181396484375 -464.4872741699219 24.66694831848145
-405.6985473632812 -466.5581970214844 24.39528846740723
-405.7694702148438 -465.1538391113281 25.09742164611816
-405.2943420410156 -463.3282775878906 26.31760597229004
-404.4988403320312 -464.755126953125 26.00576972961426
-405.3504638671875 -468.3665161132812 23.60862922668457
-407.0911560058594 -464.6008911132812 24.61873817443848
-407.2330017089844 -463.3768310546875 25.18200492858887
-405.1604919433594 -465.8757934570312 25.02005195617676
-407.6479797363281 -465.7628784179688 23.66158866882324
-404.032470703125 -464.6708984375 26.2652759552002
-406.8531799316406 -464.9549560546875 24.52314567565918
-405.5912780761719 -466.2949523925781 24.52541923522949
-404.4999389648438 -467.9418334960938 24.27341270446777
-404.5809631347656 -466.1526489257812 25.15896797180176
-407.6859130859375 -465.6788330078125 23.64328193664551
-403.5518798828125 -466.1199035644531 25.73436546325684
-403.2326049804688 -464.9600524902344 26.51246452331543
-405.3665161132812 -467.3829650878906 24.05030250549316
-406.8660888671875 -464.4364013671875 24.73941993713379
-404.2320861816406 -465.9118041992188 25.42823600769043
-406.2612609863281 -467.2777099609375 23.57613945007324
-404.0381164550781 -464.5256042480469 26.24880790710449
-405.9891662597656 -465.9219665527344 24.42140769958496
-405.0710754394531 -465.4549865722656 25.16902351379395
-405.3350219726562 -462.9798278808594 26.27990531921387
-407.291748046875 -465.4084777832031 23.9245777130127
-406.6209411621094 -465.6437683105469 24.17717552185059
-405.550048828125 -463.755126953125 25.7298755645752
-404.962890625 -464.5532836914062 25.64971733093262
-405.2360229492188 -468.4199829101562 23.50851249694824
-406.5010681152344 -465.3953857421875 24.33265113830566
-406.8932189941406 -464.2699279785156 24.68274879455566
-405.7685241699219 -465.8313293457031 24.51888465881348
-404.5061645507812 -467.0612487792969 24.59834098815918
-404.4529724121094 -464.5550231933594 25.8828296661377
-406.1013488769531 -467.1131896972656 23.65713310241699
-407.2397155761719 -464.5803527832031 24.2938175201416
-405.2979431152344 -467.3875732421875 23.96549415588379
-403.1795043945312 -463.8637390136719 26.93532371520996
-407.1654052734375 -463.7517395019531 24.74979209899902
-404.6488037109375 -467.5108947753906 24.26362419128418
-405.8053894042969 -462.3480529785156 26.20543098449707
-405.3393859863281 -462.7918090820312 26.23225593566895
-404.9342346191406 -463.1406555175781 26.28237342834473
-405.5750732421875 -467.8713989257812 23.54183769226074
-405.3084106445312 -466.6126098632812 24.31516075134277
-405.469970703125 -463.7935180664062 25.62516593933105
-403.1683654785156 -463.7372131347656 26.91327476501465
-404.6687622070312 -468.0922241210938 23.90483283996582
-405.7819213867188 -464.2193908691406 25.19440269470215
-406.4629821777344 -465.3162841796875 24.2374324798584
-404.6453857421875 -467.7786560058594 24.04265785217285
-407.7011108398438 -463.1678161621094 24.55779838562012
-404.3363952636719 -467.2577819824219 24.44040107727051
-404.9100646972656 -464.3853454589844 25.51455879211426
-407.2130432128906 -465.6940612792969 23.5674877166748
-405.6957397460938 -466.5654296875 23.99017143249512
-405.7419128417969 -464.1711730957031 25.11630058288574
-404.3553161621094 -466.2808532714844 24.87003135681152
-407.4025268554688 -464.5452270507812 23.97064018249512
-408.034912109375 -463.0419921875 24.3369083404541
-406.01513671875 -465.1127624511719 24.46961402893066
-404.3375549316406 -467.5802001953125 24.2231502532959
-405.9904174804688 -463.5774230957031 25.21524620056152
-406.9562377929688 -464.785400390625 24.0649356842041
-407.60986328125 -463.1939086914062 24.45555305480957
-404.5783386230469 -468.125244140625 23.8035945892334
-406.7782897949219 -465.4640197753906 23.80174827575684
-404.2770385742188 -467.6431274414062 24.16719627380371
-404.8887939453125 -463.5274963378906 25.74867057800293
-406.9629821777344 -465.5480346679688 23.62396812438965
-407.4486694335938 -464.3616333007812 23.90669822692871
-404.6193237304688 -467.9968566894531 23.78495979309082
-404.7142944335938 -466.6945190429688 24.33809852600098
-404.2945251464844 -467.1788330078125 24.34552574157715
-406.6544799804688 -465.5964660644531 23.73503684997559
-405.9882202148438 -465.8939208984375 23.96750068664551
-405.9083862304688 -464.1384887695312 24.82145500183105
-404.564453125 -466.5442504882812 24.45710945129395
-405.1014099121094 -464.8134155273438 24.95754051208496
-404.9527282714844 -464.5887451171875 25.14350700378418
-404.9636840820312 -463.9239501953125 25.44388008117676
-403.5853576660156 -465.1869506835938 25.62022972106934
-406.7107849121094 -465.4763793945312 23.72555351257324
-403.1508483886719 -464.1839904785156 26.32256507873535
-404.3713684082031 -467.3537902832031 24.1638126373291
-405.5392150878906 -462.3560485839844 25.80341148376465
-404.4884643554688 -467.0717163085938 24.19628715515137
-404.6248474121094 -464.0358276367188 25.48723030090332
-405.5860290527344 -467.8658142089844 23.19816398620605
-406.5784301757812 -465.6227722167969 23.65713691711426
-407.1373596191406 -463.2353515625 24.42152976989746
-405.2212829589844 -465.9430541992188 24.26603889465332
-404.1813049316406 -467.694091796875 24.0550479888916
-405.0624694824219 -465.3143310546875 24.63691520690918
-404.9612121582031 -463.7686157226562 25.38819313049316
-404.5574035644531 -467.9777221679688 23.6907787322998
-404.4641418457031 -467.4512023925781 23.9774341583252
-407.6723937988281 -465.1116943359375 23.20339012145996
-403.8472595214844 -464.0187072753906 25.84132194519043
-405.1737365722656 -467.1765747070312 23.67691230773926
-402.8186340332031 -464.2827453613281 26.29351234436035
-405.2946472167969 -465.7196044921875 24.25442314147949
-404.3268432617188 -467.3193359375 24.08365058898926
-404.6390991210938 -465.1387634277344 24.87470817565918
-405.3144836425781 -467.9070739746094 23.24729347229004
-405.6654357910156 -465.8528137207031 23.9536304473877
-403.7075805664062 -466.9917297363281 24.54007148742676
-407.0648803710938 -465.5433959960938 23.27937126159668
-403.8791809082031 -465.0946044921875 23.11068534851074
-405.8292846679688 -466.7241821289062 23.45160484313965
-403.1325378417969 -463.767578125 26.26566505432129
-404.5780944824219 -468.1888427734375 23.50876808166504
-404.1815185546875 -466.3775634765625 25.46664619445801
-406.7199096679688 -463.2956848144531 24.44919013977051
-403.8201293945312 -464.7543334960938 23.2878360748291
-405.9262084960938 -466.5333557128906 23.4454402923584
-406.6319885253906 -463.9625854492188 24.16190910339355
-404.8144836425781 -462.1685791015625 23.8410472869873
-404.4072875976562 -467.8143920898438 23.73635292053223
-404.3734436035156 -466.2083435058594 24.44708061218262
-403.4790649414062 -464.763671875 27.20045280456543
-403.1264038085938 -463.6164855957031 26.24591636657715
-404.3076171875 -467.6245422363281 23.84615898132324
-404.37109375 -465.6434326171875 24.65710258483887
-403.4267578125 -465.9408264160156 25.04483985900879
-403.4949035644531 -465.5399475097656 26.56339454650879
-405.0830993652344 -468.1792297363281 23.15162467956543
-407.3646545410156 -464.0895385742188 23.61741065979004
-402.7977294921875 -462.3147583007812 24.88555717468262
-405.8037109375 -465.4516906738281 23.90709495544434
-404.3558349609375 -467.8604736328125 23.69040489196777
-404.8109741210938 -465.5977783203125 24.39592933654785
-403.6385498046875 -466.1827087402344 22.74502372741699
-403.7387390136719 -465.54541015625 25.00129127502441
-403.1013793945312 -466.9857788085938 24.74668312072754
-404.107177734375 -466.174072265625 25.71723365783691
-403.7931823730469 -463.7944641113281 25.70997047424316
-403.4739685058594 -464.0757446289062 25.76811790466309
-402.7208557128906 -464.2378845214844 26.11691474914551
-405.2928161621094 -465.956787109375 23.93916511535645
-404.989990234375 -465.504638671875 25.77978324890137
-404.7379150390625 -466.2112426757812 24.14033317565918
-405.7009887695312 -463.4781188964844 24.75203132629395
-404.4001159667969 -466.4818725585938 25.30853080749512
-403.3008422851562 -465.9105834960938 23.04542350769043
-404.9458312988281 -464.6737976074219 24.66958808898926
-402.4967956542969 -466.7435913085938 23.13615226745605
-403.8458557128906 -466.9201354980469 24.33784294128418
-403.6985168457031 -465.6252746582031 24.95760154724121
-403.6022033691406 -464.4337768554688 25.50966835021973
-403.4033813476562 -464.2916259765625 25.67932319641113
-402.0418701171875 -467.1014404296875 23.23533058166504
-403.013916015625 -463.8887939453125 26.06373405456543
-404.2570190429688 -468.0030212402344 23.63164710998535
-402.00634765625 -466.0088806152344 23.71499061584473
-404.5859069824219 -466.0420227050781 24.26473045349121
-404.7051086425781 -464.7098999023438 22.74149894714355
-404.4295959472656 -462.3401184082031 25.87842750549316
-402.8717651367188 -464.4929504394531 25.84878349304199
-402.9055480957031 -466.8172912597656 22.84997367858887
-405.4515075683594 -466.0181579589844 23.75943946838379
-402.974609375 -465.8838806152344 25.17960548400879
-402.3062744140625 -465.4285278320312 23.75922584533691
-405.0310668945312 -467.5299682617188 23.34040641784668
-405.611572265625 -466.1075439453125 23.5991268157959
-403.2723388671875 -462.5101623535156 24.44719886779785
-406.2278747558594 -464.4866943359375 23.9189510345459
-404.1667175292969 -465.0021362304688 22.87370109558105
-404.2719116210938 -467.9163513183594 23.60407829284668
-404.1083679199219 -463.2998657226562 25.56780815124512
-403.1794128417969 -465.8144836425781 25.05900382995605
-403.1520385742188 -464.1138305664062 25.76643943786621
-402.2035827636719 -466.0093994140625 23.53560066223145
-403.2813720703125 -465.8551635742188 22.97771263122559
-403.7657165527344 -462.0694274902344 24.26540946960449
-402.738037109375 -467.30859375 22.64720726013184
-404.5400695800781 -468.0524597167969 23.3725757598877
-406.5124206542969 -463.3379516601562 24.18498039245605
-405.2991943359375 -463.7699279785156 22.63710594177246
-402.8648681640625 -466.7735595703125 22.76468849182129
-404.9858093261719 -466.1724853515625 25.24072456359863
-403.9203796386719 -467.0567321777344 24.11916542053223
-403.2300415039062 -464.7449035644531 27.40129661560059
-403.5387878417969 -465.4117126464844 22.94320869445801
-403.4923400878906 -467.2304382324219 24.28634071350098
-406.2242431640625 -466.5628662109375 23.00710105895996
-402.7058715820312 -466.2838439941406 23.04952812194824
-402.6822509765625 -465.9299621582031 23.20511054992676
-404.9162292480469 -463.80517578125 22.78996467590332
-405.0105285644531 -468.1563720703125 23.04253196716309
-406.7463989257812 -464.9051818847656 23.38180351257324
-404.4879455566406 -463.3401184082031 27.86266899108887
-404.0940551757812 -464.5505065917969 22.94441032409668
-403.7753295898438 -463.6214599609375 23.49036598205566
-401.9336547851562 -466.3625793457031 23.40827369689941
-405.3212585449219 -466.9615783691406 23.34899711608887
-405.150634765625 -463.9038696289062 22.5759334564209
-402.1553649902344 -466.7257690429688 23.10727882385254
-406.2204284667969 -464.9119567871094 23.6712589263916
-402.6086120605469 -464.130615234375 23.88320732116699
-406.1495971679688 -462.9644470214844 23.70821952819824
-404.8201293945312 -466.309326171875 23.88862419128418
-406.1450805664062 -467.4154357910156 25.6689624786377
-402.58251953125 -467.4296264648438 22.56631278991699
-405.288818359375 -464.2041931152344 24.4719295501709
-402.8163757324219 -466.7649841308594 22.69817543029785
-403.9568786621094 -466.9271850585938 24.12002754211426
-403.4761657714844 -465.2179565429688 26.8825626373291
-403.7142333984375 -465.3041381835938 24.89761161804199
-402.89697265625 -466.2833251953125 22.84255027770996
-403.0485229492188 -466.8822021484375 24.6358585357666
-401.7737731933594 -466.96728515625 23.19204521179199
-406.0997924804688 -465.9703674316406 23.28107643127441
-401.7000122070312 -465.8777770996094 23.65892219543457
-403.3515319824219 -461.9945983886719 24.2713565826416
-402.82177734375 -465.4562683105469 25.33146858215332
-404.9377136230469 -463.66748046875 22.70128440856934
-403.2508850097656 -465.3082885742188 22.99231910705566
-404.0699768066406 -467.8895263671875 23.6458911895752
-405.2427062988281 -464.2682800292969 24.4328670501709
-404.0299072265625 -463.0624694824219 23.43496513366699
-404.3111572265625 -468.0291137695312 23.1670093536377
-404.9947204589844 -464.41552734375 26.71172523498535
-402.6115112304688 -467.3467407226562 22.52845573425293
-404.453369140625 -463.3831481933594 23.04109001159668
-404.0024108886719 -465.997802734375 25.96158027648926
-401.5718994140625 -466.8927612304688 23.27458381652832
-404.0639038085938 -466.0994262695312 24.3598690032959
-404.845703125 -464.1992797851562 22.46706581115723
-403.5308837890625 -465.8492126464844 24.74612617492676
-404.9475402832031 -463.5860595703125 22.64467811584473
-403.0693969726562 -465.939697265625 22.78110694885254
-404.4813537597656 -463.2977905273438 23.01082801818848
-402.0028076171875 -466.8685607910156 23.01373863220215
-402.8940734863281 -465.9641418457031 25.05363273620605
-404.1737976074219 -464.6824340820312 22.61520195007324
-401.7138977050781 -466.5753479003906 23.2534236907959
-402.3074951171875 -464.5273132324219 23.69925498962402
-402.2211303710938 -464.1629028320312 23.88400077819824
-404.3700256347656 -464.8036804199219 22.42220497131348
-402.0741882324219 -465.8878173828125 23.27956962585449
-407.1422119140625 -464.1610717773438 23.37918663024902
-404.2874450683594 -466.3231506347656 25.54151725769043
-403.78271484375 -464.8332214355469 27.0829906463623
-404.23486328125 -464.5276489257812 22.55954170227051
-406.0015869140625 -464.2489624023438 23.97811317443848
-402.6327209472656 -466.5222473144531 22.70300483703613
-404.0836791992188 -466.5303039550781 24.14523887634277
-404.287109375 -463.4935913085938 22.91322898864746
-402.0062255859375 -466.3934631347656 23.09507179260254
-401.7749328613281 -465.9759826660156 23.37631797790527
-403.1494140625 -462.1116943359375 24.04879951477051
-403.4891662597656 -465.9399108886719 24.70261573791504
-402.9755554199219 -466.3663330078125 24.81994819641113
-404.1761169433594 -465.0173645019531 22.3746509552002
-404.3675537109375 -464.3010864257812 22.53177833557129
-405.9532775878906 -466.546630859375 23.07201194763184
-402.8319702148438 -465.7926025390625 22.82997703552246
-404.8064880371094 -464.2887268066406 26.97358894348145
-402.3291320800781 -467.2827758789062 22.53267097473145
-401.6993103027344 -466.3651733398438 22.97907829284668
-404.1025695800781 -464.2041320800781 22.67426872253418
-403.4320983886719 -464.3288879394531 22.99765205383301
-403.5168762207031 -463.1347351074219 23.38401222229004
-402.0948181152344 -464.2598266601562 23.75736045837402
-405.863525390625 -466.3144836425781 23.21255302429199
-405.9334716796875 -463.7254943847656 26.82322883605957
-405.7735290527344 -465.6415405273438 23.52510643005371
-402.6388854980469 -466.7992858886719 22.50627326965332
-406.4354248046875 -463.31591796875 24.06468772888184
-405.2099609375 -462.9492797851562 22.42877006530762
-403.5034484863281 -465.0641784667969 22.61592674255371
-403.5129699707031 -464.5924987792969 22.7162036895752
-401.9447326660156 -466.3832397460938 23.00442314147949
-404.8196411132812 -463.9762268066406 22.2365894317627
-404.1922302246094 -466.4622192382812 25.52509498596191
-404.0646362304688 -467.02001953125 23.9361400604248
-404.5789489746094 -463.8531494140625 22.41233253479004
-402.5305480957031 -465.7505798339844 22.8718204498291
-403.3443908691406 -463.8649291992188 23.08712577819824
-403.2864074707031 -463.4331665039062 23.27070045471191
-403.2266845703125 -466.5757141113281 24.23737907409668
-404.2132873535156 -463.8915405273438 22.55791664123535
-406.1668090820312 -464.6469116210938 25.94070243835449
-404.1167297363281 -466.410400390625 24.14489936828613
-402.7175598144531 -465.8269653320312 22.70724296569824
-402.4699401855469 -465.3852233886719 22.99701499938965
-403.333251953125 -466.4068298339844 24.57466316223145
-403.2327575683594 -463.490966796875 23.23628044128418
-405.086669921875 -466.1315002441406 25.31005668640137
-402.2820129394531 -464.7792358398438 23.31093788146973
-404.7991333007812 -465.5259704589844 23.87330055236816
-402.9003601074219 -462.3390502929688 23.81917381286621
-404.4282836914062 -464.4726257324219 22.19745445251465
-406.1502990722656 -466.5732421875 22.92160606384277
-402.616455078125 -466.7296142578125 22.41725730895996
-402.2309265136719 -464.3146362304688 23.46005058288574
-404.759521484375 -464.0088195800781 24.19625282287598
-405.857177734375 -462.3822937011719 22.08904457092285
-405.1662902832031 -462.8687438964844 22.30337715148926
-403.5413513183594 -465.9514465332031 26.34268760681152
-406.9848327636719 -464.3614196777344 23.31329154968262
-403.6375122070312 -464.2601013183594 22.66995811462402
-401.7333984375 -466.2320861816406 23.04475975036621
-404.2165222167969 -467.4858703613281 23.64297294616699
-401.7405090332031 -465.7749328613281 23.19663047790527
-404.1372680664062 -466.3191528320312 24.13765907287598
-406.1171264648438 -463.5485229492188 26.92540168762207
-403.3953552246094 -463.4098815917969 23.31830406188965
-402.686279296875 -466.9342956542969 22.25059700012207
-405.2346496582031 -462.7276306152344 22.26763343811035
-404.2577819824219 -463.7183837890625 22.47092628479004
-405.2797546386719 -466.4532165527344 28.51598167419434
-403.5584716796875 -464.3545532226562 22.64102363586426
-402.258056640625 -464.7145690917969 23.23457527160645
-402.1757507324219 -464.3501281738281 23.40255165100098
-405.7001953125 -462.5361328125 22.03193855285645
-402.4568481445312 -466.8982543945312 22.36015129089355
-404.867431640625 -465.3992919921875 26.0777759552002
-405.2265625 -466.3035278320312 28.40752601623535
-402.3888244628906 -466.2530212402344 22.61300086975098
-405.3072204589844 -466.186767578125 28.44030570983887
-403.1703491210938 -463.988525390625 22.93887138366699
-403.0765075683594 -462.42919921875 23.51048469543457
-404.4169006347656 -463.3935852050781 22.40571403503418
-402.0904846191406 -465.4563903808594 23.00480461120605
-403.0783386230469 -462.9993896484375 23.27172660827637
-405.1920776367188 -462.677978515625 22.16917610168457
-405.0278015136719 -466.1025695800781 28.62414741516113
-404.3414916992188 -463.4764709472656 22.37667274475098
-405.0624084472656 -466.0291748046875 28.63143348693848
-406.269775390625 -464.190185546875 26.31312370300293
-402.0408935546875 -466.7716369628906 22.56723594665527
-402.1688842773438 -465.7314147949219 22.83609580993652
-402.9913024902344 -463.7022094726562 23.04557991027832
-402.2877807617188 -466.7207641601562 22.42052268981934
-401.8134765625 -465.9206848144531 22.93970680236816
-402.9851379394531 -462.4760437011719 23.40736198425293
-404.8616943359375 -465.9101867675781 28.88368797302246
-405.1943359375 -462.6048889160156 22.10736274719238
-404.0208129882812 -462.8203125 22.63615226745605
-402.3172912597656 -465.3638916015625 22.77033042907715
-401.8565673828125 -465.2955627441406 23.04511451721191
-405.1576538085938 -466.4664306640625 27.93108940124512
-402.624267578125 -466.4907531738281 22.21563529968262
-405.2151184082031 -466.1118469238281 28.3217601776123
-402.133056640625 -466.8916320800781 22.36077690124512
-402.1801452636719 -463.7488708496094 25.73425102233887
-402.81787109375 -463.7974243164062 22.86684608459473
-402.4962463378906 -464.8973388671875 22.67312049865723
-404.8382568359375 -468.0161743164062 22.90498924255371
-405.0904541015625 -462.5044555664062 21.8805103302002
-402.4642333984375 -463.7783203125 22.90612602233887
-404.9617614746094 -466.046875 28.53677940368652
-404.5954284667969 -467.2231140136719 27.28240013122559
-403.0505065917969 -461.1575317382812 23.34553337097168
-402.9546813964844 -463.8921203613281 22.5648365020752
-403.5786437988281 -462.6723327636719 22.52959632873535
-402.6087341308594 -467.1169128417969 24.44007682800293
-405.1732177734375 -465.1150512695312 29.4627857208252
-403.3046875 -464.4813842773438 22.9205379486084
-404.4841613769531 -466.7852783203125 25.1424732208252
-406.9478759765625 -466.5001831054688 27.77193260192871
-407.3601379394531 -466.483154296875 27.43244361877441
-407.0599060058594 -466.4350891113281 27.45700645446777
-405.0650939941406 -466.4790954589844 27.8493480682373
-405.2825927734375 -466.2699890136719 28.5214786529541
-404.7453002929688 -465.8650817871094 28.74567985534668
-404.6659851074219 -467.0903930664062 27.28944206237793
-406.1797485351562 -466.6703796386719 27.58690452575684
-407.0005798339844 -466.29541015625 27.33603477478027
-406.1773681640625 -466.5532531738281 27.5614185333252
-405.0957336425781 -465.8728942871094 28.73127937316895
-405.4381408691406 -465.7769165039062 28.40637016296387
-401.9427185058594 -464.3326721191406 23.76485633850098
-407.19970703125 -466.6944580078125 26.84679985046387
-404.7640380859375 -466.1244201660156 28.3663272857666
-405.0523071289062 -466.5811157226562 28.11105537414551
-404.7923889160156 -466.0270385742188 28.71980857849121
-405.1451721191406 -465.0538635253906 29.41121482849121
-404.5204467773438 -467.187255859375 27.19890785217285
-404.984375 -465.8612976074219 28.48888206481934
-407.4425964355469 -465.4365844726562 27.72272300720215
-404.8366394042969 -466.8735961914062 26.79403495788574
-406.0662536621094 -465.7116088867188 28.23945426940918
-403.4647521972656 -463.3353881835938 23.34906578063965
-404.7324829101562 -465.7925415039062 28.70569038391113
-406.1707458496094 -466.8740234375 27.16711235046387
-405.3513488769531 -465.7795715332031 28.3225154876709
-406.3908386230469 -465.4794921875 28.2053279876709
-406.2944641113281 -466.1411743164062 27.66460990905762
-404.9151611328125 -465.8914489746094 28.43027687072754
-405.0694580078125 -465.044677734375 29.32548332214355
-405.4132080078125 -466.0603942871094 28.2154483795166
-404.9656982421875 -466.6716003417969 27.95623588562012
-403.434814453125 -463.8669128417969 23.14188575744629
-407.0791320800781 -465.9536437988281 27.35269737243652
-402.1595153808594 -466.4878540039062 22.73905372619629
-406.278564453125 -466.58251953125 27.26472663879395
-406.1508483886719 -465.6229553222656 28.00621604919434
-402.9643249511719 -462.0074768066406 24.23317909240723
-407.2384033203125 -466.4451904296875 26.81623268127441
-405.7872619628906 -467.1065063476562 27.06327629089355
-405.0363464355469 -465.7288513183594 28.49070167541504
-404.9526062011719 -465.4798583984375 28.82248878479004
-403.2843017578125 -464.3920288085938 25.46548271179199
-404.9385375976562 -465.9966735839844 28.43525505065918
-406.97802734375 -464.4534606933594 27.30245780944824
-406.3263854980469 -466.4051818847656 27.2975025177002
-403.3905029296875 -464.4217834472656 22.97455406188965
-406.1553344726562 -467.8424682617188 26.19733238220215
-404.6057739257812 -463.2086791992188 22.82230567932129
-406.3959045410156 -465.3550415039062 28.11321067810059
-405.5674438476562 -467.4900207519531 26.79574775695801
-404.9213256835938 -466.59228515625 27.87450218200684
-406.3190307617188 -467.8572387695312 26.05858039855957
-403.1943664550781 -462.2864074707031 24.08613014221191
-406.0319213867188 -466.9038391113281 26.12660026550293
-405.2166748046875 -466.1439819335938 27.85268974304199
-404.8493347167969 -466.1931457519531 27.9963550567627
-405.4071960449219 -467.3374328613281 26.9305362701416
-405.4057922363281 -465.7617492675781 28.18615531921387
-403.9835205078125 -465.3523864746094 28.37198448181152
-403.3750610351562 -464.5088806152344 23.0268726348877
-406.4277954101562 -467.9317321777344 25.8686351776123
-403.6390380859375 -464.6130065917969 22.88067436218262
-404.9227294921875 -465.8021545410156 28.40340995788574
-405.2236938476562 -467.2230529785156 27.04332542419434
-403.2147827148438 -462.8985290527344 23.90672874450684
-406.4206237792969 -467.5573425292969 26.09379386901855
-401.8725891113281 -465.9286804199219 23.31082725524902
-407.7931518554688 -465.3553161621094 26.23849296569824
-406.85546875 -465.2209167480469 27.9439640045166
-405.6790161132812 -467.0596923828125 26.88615989685059
-405.87060546875 -465.5648803710938 27.89958763122559
-404.7333374023438 -462.7305908203125 23.19897270202637
-404.8256225585938 -466.7652893066406 27.29363441467285
-406.4913635253906 -467.3713989257812 26.12585639953613
-406.9115905761719 -466.2620849609375 26.7524242401123
-407.2654113769531 -465.1741943359375 27.39895057678223
-405.2347412109375 -465.9625549316406 27.89771842956543
-403.2708129882812 -464.7869567871094 23.12736701965332
-403.1781005859375 -465.3200988769531 22.93946647644043
-404.7758483886719 -465.9854736328125 28.13227653503418
-406.5265808105469 -467.6162109375 25.88235282897949
-404.8410949707031 -467.3912963867188 23.23601722717285
-403.4237976074219 -462.1261291503906 24.28264045715332
-405.0549011230469 -465.9469604492188 28.09885597229004
-403.2738647460938 -462.9292297363281 24.00267601013184
-401.5520629882812 -466.8503112792969 23.17819404602051
-405.8091735839844 -466.6526184082031 27.00987434387207
-402.6061096191406 -464.5216674804688 23.69533348083496
-401.9646301269531 -466.9812622070312 22.92703437805176
-405.1681518554688 -467.1930236816406 26.94755363464355
-407.8846740722656 -465.35107421875 26.83094596862793
-403.0057983398438 -462.3616638183594 24.50408363342285
-402.2710266113281 -464.1589965820312 24.08273124694824
-402.6071166992188 -464.9886474609375 23.51777458190918
-407.0744018554688 -464.94482421875 27.57206153869629
-403.3784484863281 -464.7343139648438 23.21111869812012
-403.8636474609375 -464.5063171386719 23.04937553405762
-404.8515930175781 -465.4959411621094 28.72177314758301
-402.4864196777344 -467.2041931152344 24.62138938903809
-402.9836730957031 -462.4452514648438 24.52538108825684
-405.6579284667969 -466.9399108886719 26.83004951477051
-403.1076049804688 -462.792724609375 24.29689598083496
-402.4957275390625 -465.1854248046875 23.52605628967285
-406.1346435546875 -466.3284301757812 26.99109077453613
-402.8944091796875 -465.1317138671875 25.33505058288574
-405.3919372558594 -467.0429077148438 26.85841178894043
-402.13134765625 -466.808837890625 22.97483253479004
-405.3896789550781 -465.3579406738281 28.1358585357666
-403.2537841796875 -462.5958251953125 24.36078453063965
-406.6318664550781 -467.67041015625 25.67334175109863
-402.4295349121094 -464.4505310058594 23.94753456115723
-404.8106384277344 -465.1883544921875 29.09328651428223
-401.8027954101562 -466.6019592285156 23.28731727600098
-406.0946655273438 -465.8836975097656 27.30511665344238
-405.4794006347656 -465.0433654785156 28.27582740783691
-401.6436462402344 -467.1590270996094 23.11456489562988
-405.0068359375 -465.8808898925781 26.12618827819824
-402.0517272949219 -466.9404296875 22.99253273010254
-404.708251953125 -465.9643859863281 28.00677299499512
-402.7059631347656 -462.4544067382812 24.77175712585449
-401.5155029296875 -466.3279724121094 23.60409355163574
-401.944580078125 -466.0598449707031 23.4947681427002
-403.9112548828125 -464.53955078125 23.13033485412598
-406.2227172851562 -467.6682434082031 25.86406135559082
-403.31640625 -462.5802917480469 24.4313793182373
-401.5725708007812 -466.2731628417969 23.63640403747559
-401.4580993652344 -466.8043518066406 23.44722175598145
-401.8785705566406 -466.5496215820312 23.33731269836426
-406.1416931152344 -466.2286682128906 26.97904396057129
-405.2403869628906 -467.3182373046875 26.65970802307129
-401.9794921875 -466.7548217773438 23.18454551696777
-401.7384643554688 -466.0516662597656 23.68718910217285
-403.3184814453125 -462.6655578613281 24.48734855651855
-404.7853698730469 -464.8098754882812 28.78615760803223
-404.3236083984375 -461.60498046875 24.44735145568848
-401.7551574707031 -466.7769775390625 23.36299324035645
-401.9241943359375 -466.8813171386719 23.21983909606934
-403.3396301269531 -463.1993103027344 24.26399040222168
-404.4544372558594 -462.0093994140625 24.23068428039551
-407.8897399902344 -465.1717224121094 26.77144813537598
-406.8970642089844 -465.1083679199219 27.3531665802002
-401.5942687988281 -466.6876831054688 23.5266170501709
-403.8358764648438 -463.9051208496094 23.64887809753418
-405.930419921875 -468.4236755371094 25.39628791809082
-403.6044616699219 -464.6571655273438 23.41037559509277
-403.5561218261719 -467.3575134277344 24.05898475646973
-403.9871826171875 -464.5722045898438 23.24152565002441
-406.5816650390625 -466.1693115234375 26.70550727844238
-403.4277038574219 -462.572265625 24.56814384460449
-401.78076171875 -466.0764770507812 23.75596809387207
-402.4683532714844 -466.2051086425781 23.31573295593262
-405.9856872558594 -466.4718322753906 23.09105491638184
-402.7247009277344 -466.2239990234375 23.16573524475098
-405.1431579589844 -467.5345153808594 23.02162742614746
-403.4871520996094 -462.5184326171875 24.61013603210449
-402.2186889648438 -465.031982421875 24.06587791442871
-405.2433471679688 -467.2328491210938 26.65042304992676
-403.4718322753906 -463.5689697265625 24.10040473937988
-403.5738830566406 -462.4263000488281 24.66283988952637
-404.4163208007812 -467.4090270996094 26.97514915466309
-402.0774841308594 -465.2900085449219 24.05859565734863
-406.0022583007812 -466.40283203125 26.80701637268066
-402.15966796875 -466.3255920410156 23.4981632232666
-402.1280822753906 -463.8540649414062 24.78843116760254
-403.5088806152344 -462.5753173828125 24.6726245880127
-406.0598754882812 -465.782470703125 27.23097038269043
-401.8420104980469 -466.4437561035156 23.6472339630127
-404.209228515625 -463.9882202148438 23.58003807067871
-404.9940490722656 -467.33447265625 26.67740821838379
-403.0719299316406 -464.7038879394531 25.12739753723145
-405.2400512695312 -466.1468811035156 27.41430473327637
-403.589599609375 -462.4937744140625 24.72406196594238
-404.8202514648438 -466.734619140625 27.21355628967285
-404.29345703125 -461.9322204589844 24.62211036682129
-403.0008239746094 -464.390625 24.08789253234863
-405.1479187011719 -462.2896728515625 23.97276878356934
-406.659423828125 -465.9412231445312 26.75126457214355
-404.1078186035156 -464.5831604003906 23.38311195373535
-406.3556213378906 -466.0789794921875 26.80472755432129
-404.3269958496094 -462.4634094238281 24.38412284851074
-405.9292907714844 -466.0294799804688 27.07541847229004
-405.1568908691406 -466.8701477050781 26.88716697692871
-401.7272644042969 -467.001953125 23.49735832214355
-404.2098388671875 -464.0595397949219 23.63496589660645
-402.5620727539062 -463.7398681640625 24.7427806854248
-405.1209106445312 -466.4181518554688 27.23661613464355
-404.5401000976562 -465.4348754882812 28.27330207824707
-401.9451599121094 -465.21337890625 24.32523155212402
-406.3611755371094 -467.2609558105469 25.91103553771973
-406.2778015136719 -466.6430358886719 26.40557670593262
-402.2764282226562 -465.1178894042969 24.19261360168457
-407.2678527832031 -463.5452270507812 23.4082088470459
-402.5419006347656 -463.8163757324219 24.7613353729248
-402.4075927734375 -465.3678588867188 24.03288459777832
-401.906494140625 -466.4668884277344 23.73930168151855
-405.2341003417969 -467.1287231445312 26.61814308166504
-401.8306884765625 -466.9123840332031 23.55043983459473
-405.0475769042969 -466.6921691894531 23.53300285339355
-404.2134094238281 -464.1562194824219 23.71194648742676
-404.1996154785156 -464.5938110351562 23.49136161804199
-402.2869262695312 -465.9924621582031 23.8521671295166
-403.9746398925781 -463.66455078125 24.19746208190918
-402.6206665039062 -465.9328002929688 23.7388858795166
-404.6331481933594 -465.0149230957031 28.48037910461426
-405.8966064453125 -468.3688354492188 25.3304500579834
-404.8489685058594 -466.6960754394531 23.64146614074707
-402.09619140625 -466.9672546386719 23.47874641418457
-401.8959655761719 -464.1011657714844 25.14877128601074
-401.9996643066406 -464.4114379882812 24.92661476135254
-402.1193237304688 -465.9198303222656 24.05704689025879
-401.625244140625 -466.9749145507812 23.76521873474121
-402.6672973632812 -463.8206176757812 24.92321586608887
-403.88720703125 -462.3825988769531 25.0273380279541
-403.1581726074219 -464.00244140625 24.55658531188965
-405.1586303710938 -467.2752685546875 26.52065467834473
-405.2001037597656 -465.4554138183594 27.80898094177246
-402.015380859375 -466.8008117675781 23.67922401428223
-406.3791809082031 -463.8028259277344 26.62381935119629
-402.0594482421875 -464.3903503417969 24.99259376525879
-404.5182189941406 -466.8901672363281 27.15043830871582
-403.7398376464844 -463.1678771972656 24.73348808288574
-402.3265075683594 -466.4128723144531 23.7516918182373
-407.3848266601562 -464.8895874023438 26.97786521911621
-401.7926940917969 -467.4328002929688 23.49215888977051
-404.3898620605469 -464.5249633789062 23.64218330383301
-402.8987731933594 -465.0528259277344 25.38228034973145
-405.9696044921875 -465.2382202148438 27.49269676208496
-402.2116088867188 -464.174072265625 25.0723934173584
-407.1046752929688 -465.8164367675781 26.42104148864746
-404.0408935546875 -463.7249145507812 24.31501579284668
-405.9616394042969 -463.3753051757812 24.19051933288574
-401.9968872070312 -465.0281372070312 24.76464653015137
-401.8941345214844 -467.3528747558594 23.54388618469238
-402.2862243652344 -466.9366455078125 24.47618675231934
-406.2363891601562 -466.6076965332031 26.33560371398926
-402.1457824707031 -464.3697204589844 25.09282493591309
-403.6122131347656 -462.9918212890625 25.05239677429199
-402.4061279296875 -466.395751953125 23.82848930358887
-405.1883850097656 -467.0587463378906 23.23607063293457
-403.0918273925781 -466.5907897949219 24.26287651062012
-405.9898986816406 -465.1381530761719 27.50894737243652
-404.8608703613281 -463.6176147460938 24.02128791809082
-402.3534545898438 -464.0558776855469 25.19148445129395
-403.8573303222656 -462.6509094238281 25.15038108825684
-402.2855224609375 -466.9061584472656 23.64074516296387
-405.8640441894531 -465.3999328613281 27.34918022155762
-404.3873901367188 -467.1596069335938 26.91824913024902
-403.7182006835938 -462.9106140136719 25.13393211364746
-404.4353637695312 -464.6339111328125 23.77311515808105
-402.7590637207031 -463.9606018066406 25.11771583557129
-406.6634521484375 -466.9231567382812 25.80348014831543
-405.7013549804688 -468.2928161621094 25.37007713317871
-403.9028930664062 -462.6732482910156 25.21908760070801
-404.0115966796875 -463.4984741210938 24.69289970397949
-404.9911804199219 -464.9996032714844 20.76327323913574
-402.47314453125 -465.5701904296875 22.22150230407715
-406.69775390625 -466.0624084472656 26.39002799987793
-402.2626647949219 -466.6661071777344 23.85969352722168
-404.8245239257812 -463.7703247070312 24.09335517883301
-402.3941955566406 -467.1378479003906 23.52054405212402
-407.092041015625 -464.818603515625 27.04769325256348
-402.1900329589844 -464.9069213867188 24.9382266998291
-402.6260681152344 -464.6650390625 24.8371753692627
-402.7691040039062 -465.2866516113281 24.40471458435059
-402.5011901855469 -466.3844604492188 23.92587089538574
-403.6548767089844 -466.2133178710938 24.46472358703613
-402.151611328125 -464.0829162597656 25.47588157653809
-403.7186584472656 -462.5267944335938 25.51078224182129
-407.2095947265625 -463.6188049316406 23.37447166442871
-402.3476867675781 -465.1265563964844 24.76983070373535
-403.9084167480469 -463.2554931640625 24.98874092102051
-402.4337768554688 -466.5015869140625 23.93332481384277
-403.5877380371094 -465.7550048828125 23.7292537689209
-402.2909545898438 -464.8228454589844 25.01693153381348
-404.7584533691406 -462.5760498046875 24.96379661560059
-402.5729675292969 -466.3492431640625 23.98023414611816
-402.7371826171875 -465.1069946289062 22.21295738220215
-402.3150634765625 -467.0034790039062 23.7432804107666
-402.31103515625 -464.3816223144531 25.31007194519043
-402.3605041503906 -464.7553100585938 25.06546592712402
-405.0462951660156 -465.1137084960938 20.93631935119629
-406.9415893554688 -464.5849304199219 27.28284645080566
-402.7303161621094 -467.1043701171875 22.31851387023926
-402.9793395996094 -464.328857421875 22.08562660217285
-403.9635009765625 -462.7654113769531 25.34633827209473
-404.2452697753906 -463.7942199707031 24.59276008605957
-402.817626953125 -466.0658569335938 24.05163383483887
-403.6862182617188 -465.698486328125 23.78939628601074
-402.7656555175781 -465.0393371582031 22.26068305969238
-402.1232299804688 -464.7275085449219 25.25392723083496
-402.4189147949219 -464.7010498046875 25.10764503479004
-404.0206298828125 -462.7229614257812 25.39040184020996
-404.8465270996094 -462.5427551269531 25.04364204406738
-403.0868225097656 -465.3764343261719 24.34572410583496
-405.2628173828125 -466.8481140136719 26.61802864074707
-402.4296875 -466.916015625 23.80252647399902
-403.8110656738281 -462.5675659179688 25.64753150939941
-402.6501159667969 -464.8172607421875 24.95509910583496
-404.7375793457031 -462.2295837402344 25.33970069885254
-403.1463928222656 -465.3291931152344 24.38099479675293
-406.9102172851562 -467.8070373535156 25.01152992248535
-402.8030090332031 -466.1426696777344 24.08863639831543
-403.7796936035156 -465.6456909179688 23.84672737121582
-403.2127075195312 -467.6825256347656 24.06141090393066
-402.3646240234375 -464.4177856445312 25.3967342376709
-402.6430053710938 -464.4323120117188 25.2357120513916
-402.8185424804688 -464.4417724609375 22.32110404968262
-404.8281860351562 -462.6573791503906 25.09502983093262
-402.2059326171875 -466.9364624023438 23.98500633239746
-402.3360290527344 -464.5008544921875 25.40400123596191
-403.8229370117188 -463.1491088867188 25.39922142028809
-402.3428039550781 -465.7391967773438 24.65893363952637
-402.7030029296875 -466.3293151855469 24.10808372497559
-402.6778259277344 -467.0058898925781 23.71644401550293
-402.7208862304688 -464.3888549804688 25.30752372741699
-403.7720031738281 -463.2691345214844 25.4072437286377
-402.4543151855469 -466.3397216796875 22.61853218078613
-402.8605346679688 -463.7432250976562 22.3557071685791
-404.755859375 -462.3412475585938 25.42812919616699
-402.3042602539062 -466.8647155761719 24.0423526763916
-403.5403442382812 -465.6673583984375 24.08736228942871
-404.6096801757812 -464.7612915039062 24.04789161682129
-404.467529296875 -465.2985534667969 28.1434383392334
-403.2204895019531 -465.6988220214844 22.21510124206543
-403.0815124511719 -464.7585144042969 24.9301700592041
-403.1560668945312 -465.0617065429688 24.70517539978027
-402.7177124023438 -466.023681640625 24.36110496520996
-404.4377136230469 -464.1973571777344 24.52799034118652
-401.8313598632812 -467.017822265625 23.03086280822754
-402.8751831054688 -464.5982055664062 22.4328784942627
-404.758544921875 -464.215576171875 24.34102058410645
-402.2148742675781 -464.3567810058594 25.69307518005371
-402.8312072753906 -464.2969970703125 25.39238929748535
-402.9917907714844 -464.4991760253906 25.18090629577637
-404.945556640625 -467.3143920898438 23.34401512145996
-403.270263671875 -467.703857421875 22.25908088684082
-404.2528076171875 -464.4653930664062 24.51084327697754
-402.3976745605469 -467.11279296875 23.90832328796387
-404.5233764648438 -466.8507690429688 23.62014579772949
-403.3303527832031 -464.6394958496094 22.2487621307373
-402.9217224121094 -464.2029113769531 25.45160484313965
-402.6268310546875 -466.5435485839844 24.17139625549316
-402.5578918457031 -466.9478759765625 23.95993995666504
-404.1770629882812 -467.87939453125 23.57294273376465
-403.7622375488281 -462.3042297363281 22.04530906677246
-404.9592895507812 -467.5611877441406 23.14239692687988
