-7.950000 -9.730000 0.206000 0.000000 0.000000 0.000000 
-7.958000 -9.740000 0.194000 0.000000 0.000000 0.000000 
-7.953000 -9.733000 0.181000 0.000000 0.000000 0.000000 
-7.953000 -9.733000 0.143000 0.000000 0.000000 0.000000 
-7.947000 -9.726000 0.131000 0.000000 0.000000 0.000000 
-7.944000 -9.723000 0.118000 0.000000 0.000000 0.000000 
-7.940000 -9.717000 0.106000 0.000000 0.000000 0.000000 
-7.936000 -9.713000 0.093000 0.000000 0.000000 0.000000 
-7.940000 -9.717000 0.081000 0.000000 0.000000 0.000000 
-7.941000 -9.719000 0.068000 0.000000 0.000000 0.000000 
-7.929000 -9.704000 0.056000 0.000000 0.000000 0.000000 
-7.911000 -9.682000 0.043000 0.000000 0.000000 0.000000 
-7.920000 -9.693000 0.031000 0.000000 0.000000 0.000000 
-7.918000 -9.690000 0.018000 0.000000 0.000000 0.000000 
-7.912000 -9.684000 0.006000 0.000000 0.000000 0.000000 
-7.919000 -9.692000 -0.007000 0.000000 0.000000 0.000000 
-7.918000 -9.690000 -0.019000 0.000000 0.000000 0.000000 
-7.930000 -9.704000 -0.032000 0.000000 0.000000 0.000000 
-7.929000 -9.704000 -0.044000 0.000000 0.000000 0.000000 
-7.928000 -9.702000 -0.057000 0.000000 0.000000 0.000000 
-7.929000 -9.703000 -0.069000 0.000000 0.000000 0.000000 
-7.948000 -9.727000 -0.082000 0.000000 0.000000 0.000000 
-7.945000 -9.724000 -0.094000 0.000000 0.000000 0.000000 
-7.948000 -9.727000 -0.107000 0.000000 0.000000 0.000000 
-7.938000 -9.714000 -0.119000 0.000000 0.000000 0.000000 
-7.947000 -9.726000 -0.132000 0.000000 0.000000 0.000000 
-7.939000 -9.715000 -0.145000 0.000000 0.000000 0.000000 
-7.932000 -9.707000 -0.157000 0.000000 0.000000 0.000000 
-7.931000 -9.706000 -0.169000 0.000000 0.000000 0.000000 
-7.919000 -9.691000 -0.181000 0.000000 0.000000 0.000000 
-7.914000 -9.685000 -0.194000 0.000000 0.000000 0.000000 
-7.925000 -9.698000 -0.207000 0.000000 0.000000 0.000000 
-7.915000 -9.686000 -0.219000 0.000000 0.000000 0.000000 
-7.926000 -9.700000 -0.232000 0.000000 0.000000 0.000000 
-7.929000 -9.703000 -0.244000 0.000000 0.000000 0.000000 
-7.921000 -9.694000 -0.256000 0.000000 0.000000 0.000000 
-7.924000 -9.697000 -0.269000 0.000000 0.000000 0.000000 
-7.923000 -9.696000 -0.281000 0.000000 0.000000 0.000000 
-7.925000 -9.698000 -0.294000 0.000000 0.000000 0.000000 
-7.940000 -9.716000 -0.307000 0.000000 0.000000 0.000000 
-7.931000 -9.705000 -0.319000 0.000000 0.000000 0.000000 
-7.925000 -9.699000 -0.332000 0.000000 0.000000 0.000000 
-7.931000 -9.706000 -0.344000 0.000000 0.000000 0.000000 
-7.932000 -9.707000 -0.357000 0.000000 0.000000 0.000000 
-7.936000 -9.712000 -0.369000 0.000000 0.000000 0.000000 
-7.926000 -9.699000 -0.381000 0.000000 0.000000 0.000000 
-7.931000 -9.706000 -0.394000 0.000000 0.000000 0.000000 
-7.932000 -9.706000 -0.407000 0.000000 0.000000 0.000000 
-7.931000 -9.706000 -0.419000 0.000000 0.000000 0.000000 
-7.930000 -9.704000 -0.431000 0.000000 0.000000 0.000000 
-7.938000 -9.714000 -0.445000 0.000000 0.000000 0.000000 
-7.938000 -9.714000 -0.457000 0.000000 0.000000 0.000000 
-7.932000 -9.706000 -0.469000 0.000000 0.000000 0.000000 
-7.927000 -9.700000 -0.482000 0.000000 0.000000 0.000000 
-7.929000 -9.703000 -0.494000 0.000000 0.000000 0.000000 
-7.933000 -9.708000 -0.507000 0.000000 0.000000 0.000000 
-7.928000 -9.702000 -0.519000 0.000000 0.000000 0.000000 
-7.926000 -9.699000 -0.531000 0.000000 0.000000 0.000000 
-7.935000 -9.710000 -0.545000 0.000000 0.000000 0.000000 
-7.927000 -9.701000 -0.556000 0.000000 0.000000 0.000000 
-7.937000 -9.713000 -0.570000 0.000000 0.000000 0.000000 
-7.927000 -9.700000 -0.582000 0.000000 0.000000 0.000000 
-7.937000 -9.712000 -0.595000 0.000000 0.000000 0.000000 
-7.930000 -9.704000 -0.607000 0.000000 0.000000 0.000000 
-7.935000 -9.710000 -0.620000 0.000000 0.000000 0.000000 
-7.925000 -9.698000 -0.631000 0.000000 0.000000 0.000000 
-7.932000 -9.706000 -0.645000 0.000000 0.000000 0.000000 
-7.925000 -9.697000 -0.656000 0.000000 0.000000 0.000000 
-7.929000 -9.703000 -0.669000 0.000000 0.000000 0.000000 
-7.923000 -9.695000 -0.681000 0.000000 0.000000 0.000000 
-7.923000 -9.695000 -0.694000 0.000000 0.000000 0.000000 
-7.929000 -9.702000 -0.707000 0.000000 0.000000 0.000000 
-7.928000 -9.700000 -0.719000 0.000000 0.000000 0.000000 
-7.927000 -9.700000 -0.732000 0.000000 0.000000 0.000000 
-7.922000 -9.693000 -0.744000 0.000000 0.000000 0.000000 
-7.918000 -9.689000 -0.756000 0.000000 0.000000 0.000000 
-7.931000 -9.704000 -0.770000 0.000000 0.000000 0.000000 
-7.923000 -9.695000 -0.781000 0.000000 0.000000 0.000000 
-7.925000 -9.698000 -0.794000 0.000000 0.000000 0.000000 
-7.925000 -9.697000 -0.807000 0.000000 0.000000 0.000000 
-7.916000 -9.686000 -0.818000 0.000000 0.000000 0.000000 
-7.918000 -9.689000 -0.831000 0.000000 0.000000 0.000000 
-7.913000 -9.682000 -0.843000 0.000000 0.000000 0.000000 
-7.922000 -9.694000 -0.857000 0.000000 0.000000 0.000000 
-7.917000 -9.687000 -0.868000 0.000000 0.000000 0.000000 
-7.916000 -9.686000 -0.881000 0.000000 0.000000 0.000000 
-7.914000 -9.683000 -0.893000 0.000000 0.000000 0.000000 
-7.916000 -9.686000 -0.906000 0.000000 0.000000 0.000000 
-7.914000 -9.683000 -0.918000 0.000000 0.000000 0.000000 
-7.920000 -9.690000 -0.931000 0.000000 0.000000 0.000000 
-7.912000 -9.681000 -0.943000 0.000000 0.000000 0.000000 
-7.927000 -9.700000 -0.957000 0.000000 0.000000 0.000000 
-7.911000 -9.680000 -0.968000 0.000000 0.000000 0.000000 
-7.914000 -9.683000 -0.981000 0.000000 0.000000 0.000000 
-7.917000 -9.687000 -0.994000 0.000000 0.000000 0.000000 
-7.909000 -9.676000 -1.005000 0.000000 0.000000 0.000000 
-7.912000 -9.681000 -1.018000 0.000000 0.000000 0.000000 
-7.922000 -9.693000 -1.032000 0.000000 0.000000 0.000000 
-7.914000 -9.683000 -1.044000 0.000000 0.000000 0.000000 
-7.916000 -9.686000 -1.056000 0.000000 0.000000 0.000000 
-7.917000 -9.686000 -1.069000 0.000000 0.000000 0.000000 
-7.907000 -9.675000 -1.080000 0.000000 0.000000 0.000000 
-7.917000 -9.686000 -1.094000 0.000000 0.000000 0.000000 
-8.812000 -10.809000 0.939000 0.000000 0.000000 0.000000 
-8.856000 -10.863000 0.888000 0.000000 0.000000 0.000000 
-8.357000 -10.249000 0.415000 0.000000 0.000000 0.000000 
-8.326000 -10.212000 0.400000 0.000000 0.000000 0.000000 
-7.956000 -9.757000 0.370000 0.000000 0.000000 0.000000 
-8.318000 -10.201000 0.373000 0.000000 0.000000 0.000000 
-8.325000 -10.209000 0.361000 0.000000 0.000000 0.000000 
-7.933000 -9.728000 0.081000 0.000000 0.000000 0.000000 
-7.926000 -9.720000 0.068000 0.000000 0.000000 0.000000 
-7.897000 -9.684000 0.056000 0.000000 0.000000 0.000000 
-7.900000 -9.687000 0.043000 0.000000 0.000000 0.000000 
-7.899000 -9.686000 0.031000 0.000000 0.000000 0.000000 
-7.909000 -9.699000 0.018000 0.000000 0.000000 0.000000 
-7.913000 -9.703000 0.006000 0.000000 0.000000 0.000000 
-7.917000 -9.708000 -0.007000 0.000000 0.000000 0.000000 
-7.923000 -9.716000 -0.019000 0.000000 0.000000 0.000000 
-7.915000 -9.705000 -0.032000 0.000000 0.000000 0.000000 
-7.929000 -9.723000 -0.044000 0.000000 0.000000 0.000000 
-7.933000 -9.728000 -0.057000 0.000000 0.000000 0.000000 
-7.942000 -9.738000 -0.069000 0.000000 0.000000 0.000000 
-7.944000 -9.741000 -0.082000 0.000000 0.000000 0.000000 
-7.938000 -9.734000 -0.094000 0.000000 0.000000 0.000000 
-7.950000 -9.749000 -0.107000 0.000000 0.000000 0.000000 
-7.928000 -9.722000 -0.119000 0.000000 0.000000 0.000000 
-7.932000 -9.726000 -0.132000 0.000000 0.000000 0.000000 
-7.942000 -9.738000 -0.145000 0.000000 0.000000 0.000000 
-7.935000 -9.730000 -0.157000 0.000000 0.000000 0.000000 
-7.925000 -9.717000 -0.169000 0.000000 0.000000 0.000000 
-7.931000 -9.725000 -0.182000 0.000000 0.000000 0.000000 
-7.935000 -9.729000 -0.195000 0.000000 0.000000 0.000000 
-7.920000 -9.711000 -0.207000 0.000000 0.000000 0.000000 
-7.932000 -9.726000 -0.219000 0.000000 0.000000 0.000000 
-7.935000 -9.730000 -0.232000 0.000000 0.000000 0.000000 
-7.920000 -9.712000 -0.244000 0.000000 0.000000 0.000000 
-7.923000 -9.715000 -0.257000 0.000000 0.000000 0.000000 
-7.927000 -9.720000 -0.270000 0.000000 0.000000 0.000000 
-7.921000 -9.714000 -0.282000 0.000000 0.000000 0.000000 
-7.930000 -9.724000 -0.295000 0.000000 0.000000 0.000000 
-7.922000 -9.714000 -0.307000 0.000000 0.000000 0.000000 
-7.933000 -9.728000 -0.320000 0.000000 0.000000 0.000000 
-7.936000 -9.731000 -0.332000 0.000000 0.000000 0.000000 
-7.925000 -9.719000 -0.344000 0.000000 0.000000 0.000000 
-7.920000 -9.712000 -0.357000 0.000000 0.000000 0.000000 
-7.927000 -9.720000 -0.369000 0.000000 0.000000 0.000000 
-7.925000 -9.718000 -0.382000 0.000000 0.000000 0.000000 
-7.929000 -9.723000 -0.395000 0.000000 0.000000 0.000000 
-7.931000 -9.725000 -0.407000 0.000000 0.000000 0.000000 
-7.920000 -9.711000 -0.419000 0.000000 0.000000 0.000000 
-7.925000 -9.718000 -0.432000 0.000000 0.000000 0.000000 
-7.934000 -9.729000 -0.445000 0.000000 0.000000 0.000000 
-7.933000 -9.727000 -0.458000 0.000000 0.000000 0.000000 
-7.924000 -9.716000 -0.469000 0.000000 0.000000 0.000000 
-7.920000 -9.712000 -0.482000 0.000000 0.000000 0.000000 
-7.926000 -9.719000 -0.494000 0.000000 0.000000 0.000000 
-7.918000 -9.709000 -0.507000 0.000000 0.000000 0.000000 
-7.921000 -9.713000 -0.519000 0.000000 0.000000 0.000000 
-7.922000 -9.714000 -0.532000 0.000000 0.000000 0.000000 
-7.928000 -9.721000 -0.545000 0.000000 0.000000 0.000000 
-7.915000 -9.705000 -0.556000 0.000000 0.000000 0.000000 
-7.924000 -9.716000 -0.570000 0.000000 0.000000 0.000000 
-7.923000 -9.716000 -0.582000 0.000000 0.000000 0.000000 
-7.927000 -9.720000 -0.595000 0.000000 0.000000 0.000000 
-7.918000 -9.708000 -0.607000 0.000000 0.000000 0.000000 
-7.930000 -9.723000 -0.620000 0.000000 0.000000 0.000000 
-7.924000 -9.717000 -0.632000 0.000000 0.000000 0.000000 
-7.911000 -9.701000 -0.644000 0.000000 0.000000 0.000000 
-7.919000 -9.710000 -0.657000 0.000000 0.000000 0.000000 
-7.924000 -9.716000 -0.670000 0.000000 0.000000 0.000000 
-7.925000 -9.718000 -0.682000 0.000000 0.000000 0.000000 
-7.922000 -9.714000 -0.695000 0.000000 0.000000 0.000000 
-7.918000 -9.708000 -0.707000 0.000000 0.000000 0.000000 
-7.924000 -9.716000 -0.720000 0.000000 0.000000 0.000000 
-7.916000 -9.706000 -0.732000 0.000000 0.000000 0.000000 
-7.926000 -9.719000 -0.745000 0.000000 0.000000 0.000000 
-7.917000 -9.707000 -0.757000 0.000000 0.000000 0.000000 
-7.918000 -9.708000 -0.770000 0.000000 0.000000 0.000000 
-7.923000 -9.714000 -0.782000 0.000000 0.000000 0.000000 
-7.914000 -9.703000 -0.794000 0.000000 0.000000 0.000000 
-7.915000 -9.705000 -0.807000 0.000000 0.000000 0.000000 
-7.910000 -9.699000 -0.819000 0.000000 0.000000 0.000000 
-7.918000 -9.708000 -0.832000 0.000000 0.000000 0.000000 
-7.907000 -9.695000 -0.843000 0.000000 0.000000 0.000000 
-7.909000 -9.697000 -0.856000 0.000000 0.000000 0.000000 
-7.914000 -9.703000 -0.869000 0.000000 0.000000 0.000000 
-7.902000 -9.689000 -0.881000 0.000000 0.000000 0.000000 
-7.907000 -9.694000 -0.893000 0.000000 0.000000 0.000000 
-7.913000 -9.702000 -0.907000 0.000000 0.000000 0.000000 
-7.904000 -9.691000 -0.918000 0.000000 0.000000 0.000000 
-7.918000 -9.707000 -0.932000 0.000000 0.000000 0.000000 
-7.909000 -9.697000 -0.944000 0.000000 0.000000 0.000000 
-7.908000 -9.695000 -0.956000 0.000000 0.000000 0.000000 
-7.909000 -9.697000 -0.969000 0.000000 0.000000 0.000000 
-7.906000 -9.693000 -0.981000 0.000000 0.000000 0.000000 
-7.903000 -9.690000 -0.993000 0.000000 0.000000 0.000000 
-7.908000 -9.695000 -1.007000 0.000000 0.000000 0.000000 
-7.900000 -9.685000 -1.018000 0.000000 0.000000 0.000000 
-7.904000 -9.690000 -1.031000 0.000000 0.000000 0.000000 
-7.908000 -9.696000 -1.044000 0.000000 0.000000 0.000000 
-7.900000 -9.686000 -1.056000 0.000000 0.000000 0.000000 
-7.897000 -9.682000 -1.068000 0.000000 0.000000 0.000000 
-7.903000 -9.690000 -1.081000 0.000000 0.000000 0.000000 
-8.381000 -10.300000 0.442000 0.000000 0.000000 0.000000 
-8.369000 -10.285000 0.428000 0.000000 0.000000 0.000000 
-8.344000 -10.255000 0.413000 0.000000 0.000000 0.000000 
-8.332000 -10.239000 0.399000 0.000000 0.000000 0.000000 
-8.317000 -10.221000 0.386000 0.000000 0.000000 0.000000 
-7.899000 -9.706000 0.092000 0.000000 0.000000 0.000000 
-7.893000 -9.698000 0.079000 0.000000 0.000000 0.000000 
-7.881000 -9.684000 0.067000 0.000000 0.000000 0.000000 
-7.878000 -9.680000 0.054000 0.000000 0.000000 0.000000 
-7.885000 -9.689000 0.042000 0.000000 0.000000 0.000000 
-7.892000 -9.697000 0.030000 0.000000 0.000000 0.000000 
-7.899000 -9.706000 0.017000 0.000000 0.000000 0.000000 
-7.904000 -9.712000 0.005000 0.000000 0.000000 0.000000 
-7.907000 -9.715000 -0.008000 0.000000 0.000000 0.000000 
-7.963000 -9.785000 -0.096000 0.000000 0.000000 0.000000 
-7.951000 -9.770000 -0.108000 0.000000 0.000000 0.000000 
-7.941000 -9.757000 -0.121000 0.000000 0.000000 0.000000 
-7.951000 -9.770000 -0.134000 0.000000 0.000000 0.000000 
-7.942000 -9.758000 -0.334000 0.000000 0.000000 0.000000 
-7.934000 -9.749000 -0.346000 0.000000 0.000000 0.000000 
-7.934000 -9.748000 -0.359000 0.000000 0.000000 0.000000 
-7.924000 -9.736000 -0.371000 0.000000 0.000000 0.000000 
-7.926000 -9.739000 -0.384000 0.000000 0.000000 0.000000 
-7.930000 -9.744000 -0.396000 0.000000 0.000000 0.000000 
-7.923000 -9.735000 -0.408000 0.000000 0.000000 0.000000 
-7.931000 -9.744000 -0.421000 0.000000 0.000000 0.000000 
-7.935000 -9.750000 -0.434000 0.000000 0.000000 0.000000 
-7.921000 -9.732000 -0.446000 0.000000 0.000000 0.000000 
-7.918000 -9.729000 -0.458000 0.000000 0.000000 0.000000 
-7.910000 -9.718000 -0.470000 0.000000 0.000000 0.000000 
-7.923000 -9.734000 -0.484000 0.000000 0.000000 0.000000 
-7.924000 -9.735000 -0.496000 0.000000 0.000000 0.000000 
-7.917000 -9.726000 -0.508000 0.000000 0.000000 0.000000 
-7.926000 -9.738000 -0.522000 0.000000 0.000000 0.000000 
-7.914000 -9.723000 -0.533000 0.000000 0.000000 0.000000 
-7.921000 -9.732000 -0.546000 0.000000 0.000000 0.000000 
-7.919000 -9.729000 -0.558000 0.000000 0.000000 0.000000 
-7.921000 -9.731000 -0.571000 0.000000 0.000000 0.000000 
-7.924000 -9.736000 -0.584000 0.000000 0.000000 0.000000 
-7.926000 -9.738000 -0.597000 0.000000 0.000000 0.000000 
-7.922000 -9.732000 -0.609000 0.000000 0.000000 0.000000 
-7.924000 -9.736000 -0.621000 0.000000 0.000000 0.000000 
-7.913000 -9.721000 -0.633000 0.000000 0.000000 0.000000 
-7.913000 -9.722000 -0.646000 0.000000 0.000000 0.000000 
-7.920000 -9.730000 -0.659000 0.000000 0.000000 0.000000 
-7.917000 -9.727000 -0.671000 0.000000 0.000000 0.000000 
-7.919000 -9.729000 -0.684000 0.000000 0.000000 0.000000 
-7.911000 -9.719000 -0.696000 0.000000 0.000000 0.000000 
-7.910000 -9.718000 -0.708000 0.000000 0.000000 0.000000 
-7.914000 -9.722000 -0.721000 0.000000 0.000000 0.000000 
-7.913000 -9.722000 -0.734000 0.000000 0.000000 0.000000 
-7.914000 -9.724000 -0.746000 0.000000 0.000000 0.000000 
-7.904000 -9.711000 -0.758000 0.000000 0.000000 0.000000 
-7.907000 -9.714000 -0.771000 0.000000 0.000000 0.000000 
-7.908000 -9.716000 -0.783000 0.000000 0.000000 0.000000 
-7.907000 -9.714000 -0.796000 0.000000 0.000000 0.000000 
-7.910000 -9.718000 -0.808000 0.000000 0.000000 0.000000 
-7.909000 -9.717000 -0.821000 0.000000 0.000000 0.000000 
-7.908000 -9.715000 -0.833000 0.000000 0.000000 0.000000 
-7.904000 -9.711000 -0.845000 0.000000 0.000000 0.000000 
-7.910000 -9.718000 -0.859000 0.000000 0.000000 0.000000 
-7.897000 -9.702000 -0.869000 0.000000 0.000000 0.000000 
-7.906000 -9.714000 -0.883000 0.000000 0.000000 0.000000 
-7.902000 -9.708000 -0.895000 0.000000 0.000000 0.000000 
-7.898000 -9.703000 -0.907000 0.000000 0.000000 0.000000 
-7.903000 -9.710000 -0.921000 0.000000 0.000000 0.000000 
-7.898000 -9.703000 -0.932000 0.000000 0.000000 0.000000 
-7.893000 -9.696000 -0.944000 0.000000 0.000000 0.000000 
-7.901000 -9.707000 -0.958000 0.000000 0.000000 0.000000 
-7.904000 -9.711000 -0.971000 0.000000 0.000000 0.000000 
-7.889000 -9.692000 -0.982000 0.000000 0.000000 0.000000 
-7.895000 -9.700000 -0.995000 0.000000 0.000000 0.000000 
-7.893000 -9.697000 -1.007000 0.000000 0.000000 0.000000 
-7.900000 -9.706000 -1.020000 0.000000 0.000000 0.000000 
-7.897000 -9.701000 -1.033000 0.000000 0.000000 0.000000 
-7.894000 -9.698000 -1.045000 0.000000 0.000000 0.000000 
-7.897000 -9.702000 -1.058000 0.000000 0.000000 0.000000 
-7.890000 -9.694000 -1.069000 0.000000 0.000000 0.000000 
-7.887000 -9.689000 -1.081000 0.000000 0.000000 0.000000 
-8.826000 -10.871000 0.873000 0.000000 0.000000 0.000000 
-8.398000 -10.343000 0.471000 0.000000 0.000000 0.000000 
-8.380000 -10.321000 0.457000 0.000000 0.000000 0.000000 
-8.368000 -10.306000 0.443000 0.000000 0.000000 0.000000 
-8.358000 -10.294000 0.429000 0.000000 0.000000 0.000000 
-8.359000 -10.294000 0.416000 0.000000 0.000000 0.000000 
-7.865000 -9.685000 0.093000 0.000000 0.000000 0.000000 
-7.870000 -9.691000 0.080000 0.000000 0.000000 0.000000 
-7.869000 -9.690000 0.068000 0.000000 0.000000 0.000000 
-7.868000 -9.689000 0.055000 0.000000 0.000000 0.000000 
-7.871000 -9.692000 0.043000 0.000000 0.000000 0.000000 
-7.879000 -9.702000 0.031000 0.000000 0.000000 0.000000 
-7.983000 -9.830000 -0.083000 0.000000 0.000000 0.000000 
-7.969000 -9.813000 -0.095000 0.000000 0.000000 0.000000 
-7.962000 -9.804000 -0.108000 0.000000 0.000000 0.000000 
-7.939000 -9.775000 -0.446000 0.000000 0.000000 0.000000 
-7.916000 -9.746000 -0.458000 0.000000 0.000000 0.000000 
-7.926000 -9.759000 -0.471000 0.000000 0.000000 0.000000 
-7.920000 -9.752000 -0.483000 0.000000 0.000000 0.000000 
-7.916000 -9.746000 -0.495000 0.000000 0.000000 0.000000 
-7.925000 -9.757000 -0.508000 0.000000 0.000000 0.000000 
-7.917000 -9.748000 -0.520000 0.000000 0.000000 0.000000 
-7.925000 -9.757000 -0.533000 0.000000 0.000000 0.000000 
-7.914000 -9.744000 -0.545000 0.000000 0.000000 0.000000 
-7.916000 -9.746000 -0.558000 0.000000 0.000000 0.000000 
-7.917000 -9.748000 -0.570000 0.000000 0.000000 0.000000 
-7.918000 -9.749000 -0.583000 0.000000 0.000000 0.000000 
-7.918000 -9.749000 -0.596000 0.000000 0.000000 0.000000 
-7.922000 -9.754000 -0.609000 0.000000 0.000000 0.000000 
-7.919000 -9.750000 -0.621000 0.000000 0.000000 0.000000 
-7.913000 -9.743000 -0.633000 0.000000 0.000000 0.000000 
-7.911000 -9.740000 -0.645000 0.000000 0.000000 0.000000 
-7.920000 -9.752000 -0.658000 0.000000 0.000000 0.000000 
-7.923000 -9.754000 -0.671000 0.000000 0.000000 0.000000 
-7.920000 -9.752000 -0.683000 0.000000 0.000000 0.000000 
-7.907000 -9.735000 -0.695000 0.000000 0.000000 0.000000 
-7.911000 -9.740000 -0.708000 0.000000 0.000000 0.000000 
-7.913000 -9.742000 -0.721000 0.000000 0.000000 0.000000 
-7.909000 -9.737000 -0.733000 0.000000 0.000000 0.000000 
-7.909000 -9.738000 -0.745000 0.000000 0.000000 0.000000 
-7.896000 -9.722000 -0.757000 0.000000 0.000000 0.000000 
-7.907000 -9.734000 -0.770000 0.000000 0.000000 0.000000 
-7.901000 -9.728000 -0.782000 0.000000 0.000000 0.000000 
-7.904000 -9.731000 -0.795000 0.000000 0.000000 0.000000 
-7.915000 -9.744000 -0.809000 0.000000 0.000000 0.000000 
-7.896000 -9.722000 -0.819000 0.000000 0.000000 0.000000 
-7.900000 -9.726000 -0.832000 0.000000 0.000000 0.000000 
-7.906000 -9.734000 -0.845000 0.000000 0.000000 0.000000 
-7.897000 -9.723000 -0.857000 0.000000 0.000000 0.000000 
-7.895000 -9.720000 -0.869000 0.000000 0.000000 0.000000 
-7.894000 -9.718000 -0.882000 0.000000 0.000000 0.000000 
-7.902000 -9.728000 -0.895000 0.000000 0.000000 0.000000 
-7.895000 -9.720000 -0.907000 0.000000 0.000000 0.000000 
-7.890000 -9.714000 -0.919000 0.000000 0.000000 0.000000 
-7.887000 -9.709000 -0.931000 0.000000 0.000000 0.000000 
-7.886000 -9.709000 -0.944000 0.000000 0.000000 0.000000 
-7.892000 -9.716000 -0.957000 0.000000 0.000000 0.000000 
-7.895000 -9.720000 -0.970000 0.000000 0.000000 0.000000 
-7.890000 -9.713000 -0.982000 0.000000 0.000000 0.000000 
-7.892000 -9.716000 -0.994000 0.000000 0.000000 0.000000 
-7.877000 -9.697000 -1.005000 0.000000 0.000000 0.000000 
-7.885000 -9.707000 -1.018000 0.000000 0.000000 0.000000 
-7.889000 -9.713000 -1.032000 0.000000 0.000000 0.000000 
-7.889000 -9.712000 -1.044000 0.000000 0.000000 0.000000 
-7.886000 -9.708000 -1.056000 0.000000 0.000000 0.000000 
-7.893000 -9.716000 -1.070000 0.000000 0.000000 0.000000 
-8.917000 -11.005000 1.153000 0.000000 0.000000 0.000000 
-8.805000 -10.866000 0.872000 0.000000 0.000000 0.000000 
-8.425000 -10.397000 0.500000 0.000000 0.000000 0.000000 
-8.400000 -10.366000 0.485000 0.000000 0.000000 0.000000 
-8.401000 -10.367000 0.472000 0.000000 0.000000 0.000000 
-8.384000 -10.346000 0.458000 0.000000 0.000000 0.000000 
-7.824000 -9.653000 0.130000 0.000000 0.000000 0.000000 
-7.855000 -9.691000 0.118000 0.000000 0.000000 0.000000 
-7.842000 -9.676000 0.105000 0.000000 0.000000 0.000000 
-7.852000 -9.688000 0.093000 0.000000 0.000000 0.000000 
-7.853000 -9.689000 0.080000 0.000000 0.000000 0.000000 
-7.863000 -9.701000 0.068000 0.000000 0.000000 0.000000 
-7.864000 -9.702000 0.055000 0.000000 0.000000 0.000000 
-7.958000 -9.818000 -0.083000 0.000000 0.000000 0.000000 
-7.959000 -9.819000 -0.095000 0.000000 0.000000 0.000000 
-7.960000 -9.821000 -0.108000 0.000000 0.000000 0.000000 
-7.938000 -9.793000 -0.434000 0.000000 0.000000 0.000000 
-7.932000 -9.786000 -0.446000 0.000000 0.000000 0.000000 
-7.919000 -9.770000 -0.458000 0.000000 0.000000 0.000000 
-7.933000 -9.787000 -0.497000 0.000000 0.000000 0.000000 
-7.938000 -9.792000 -0.522000 0.000000 0.000000 0.000000 
-7.925000 -9.777000 -0.534000 0.000000 0.000000 0.000000 
-7.924000 -9.776000 -0.547000 0.000000 0.000000 0.000000 
-7.928000 -9.780000 -0.559000 0.000000 0.000000 0.000000 
-7.932000 -9.785000 -0.572000 0.000000 0.000000 0.000000 
-7.933000 -9.787000 -0.585000 0.000000 0.000000 0.000000 
-7.921000 -9.771000 -0.596000 0.000000 0.000000 0.000000 
-7.916000 -9.765000 -0.609000 0.000000 0.000000 0.000000 
-7.920000 -9.770000 -0.621000 0.000000 0.000000 0.000000 
-7.919000 -9.770000 -0.634000 0.000000 0.000000 0.000000 
-7.925000 -9.776000 -0.647000 0.000000 0.000000 0.000000 
-7.911000 -9.759000 -0.658000 0.000000 0.000000 0.000000 
-7.916000 -9.765000 -0.672000 0.000000 0.000000 0.000000 
-7.913000 -9.761000 -0.684000 0.000000 0.000000 0.000000 
-7.917000 -9.767000 -0.697000 0.000000 0.000000 0.000000 
-7.915000 -9.764000 -0.709000 0.000000 0.000000 0.000000 
-7.907000 -9.754000 -0.721000 0.000000 0.000000 0.000000 
-7.904000 -9.750000 -0.733000 0.000000 0.000000 0.000000 
-7.908000 -9.756000 -0.746000 0.000000 0.000000 0.000000 
-7.903000 -9.750000 -0.758000 0.000000 0.000000 0.000000 
-7.907000 -9.754000 -0.771000 0.000000 0.000000 0.000000 
-7.914000 -9.763000 -0.784000 0.000000 0.000000 0.000000 
-7.902000 -9.748000 -0.796000 0.000000 0.000000 0.000000 
-7.906000 -9.753000 -0.809000 0.000000 0.000000 0.000000 
-7.896000 -9.740000 -0.820000 0.000000 0.000000 0.000000 
-7.898000 -9.743000 -0.833000 0.000000 0.000000 0.000000 
-7.905000 -9.751000 -0.846000 0.000000 0.000000 0.000000 
-7.896000 -9.740000 -0.858000 0.000000 0.000000 0.000000 
-7.893000 -9.736000 -0.870000 0.000000 0.000000 0.000000 
-7.893000 -9.736000 -0.883000 0.000000 0.000000 0.000000 
-7.895000 -9.739000 -0.895000 0.000000 0.000000 0.000000 
-7.892000 -9.735000 -0.908000 0.000000 0.000000 0.000000 
-7.885000 -9.727000 -0.920000 0.000000 0.000000 0.000000 
-7.887000 -9.729000 -0.932000 0.000000 0.000000 0.000000 
-7.879000 -9.719000 -0.944000 0.000000 0.000000 0.000000 
-7.889000 -9.731000 -0.957000 0.000000 0.000000 0.000000 
-7.893000 -9.736000 -0.971000 0.000000 0.000000 0.000000 
-7.888000 -9.729000 -0.983000 0.000000 0.000000 0.000000 
-7.882000 -9.722000 -0.994000 0.000000 0.000000 0.000000 
-7.874000 -9.712000 -1.006000 0.000000 0.000000 0.000000 
-7.882000 -9.722000 -1.019000 0.000000 0.000000 0.000000 
-7.881000 -9.722000 -1.032000 0.000000 0.000000 0.000000 
-7.881000 -9.721000 -1.045000 0.000000 0.000000 0.000000 
-7.874000 -9.713000 -1.056000 0.000000 0.000000 0.000000 
-7.881000 -9.721000 -1.070000 0.000000 0.000000 0.000000 
-8.875000 -10.975000 1.190000 0.000000 0.000000 0.000000 
-8.902000 -11.009000 1.179000 0.000000 0.000000 0.000000 
-8.779000 -10.856000 0.869000 0.000000 0.000000 0.000000 
-8.397000 -10.383000 0.484000 0.000000 0.000000 0.000000 
-7.803000 -9.646000 0.140000 0.000000 0.000000 0.000000 
-7.833000 -9.684000 0.129000 0.000000 0.000000 0.000000 
-7.832000 -9.682000 0.116000 0.000000 0.000000 0.000000 
-7.829000 -9.678000 0.104000 0.000000 0.000000 0.000000 
-7.839000 -9.690000 0.092000 0.000000 0.000000 0.000000 
-7.841000 -9.693000 0.079000 0.000000 0.000000 0.000000 
-7.851000 -9.705000 0.067000 0.000000 0.000000 0.000000 
-7.968000 -9.850000 -0.071000 0.000000 0.000000 0.000000 
-7.949000 -9.827000 -0.084000 0.000000 0.000000 0.000000 
-7.961000 -9.842000 -0.096000 0.000000 0.000000 0.000000 
-7.924000 -9.795000 -0.460000 0.000000 0.000000 0.000000 
-7.930000 -9.802000 -0.624000 0.000000 0.000000 0.000000 
-7.930000 -9.801000 -0.713000 0.000000 0.000000 0.000000 
-7.919000 -9.788000 -0.724000 0.000000 0.000000 0.000000 
-7.915000 -9.783000 -0.736000 0.000000 0.000000 0.000000 
-7.911000 -9.779000 -0.748000 0.000000 0.000000 0.000000 
-7.903000 -9.768000 -0.760000 0.000000 0.000000 0.000000 
-7.902000 -9.767000 -0.773000 0.000000 0.000000 0.000000 
-7.917000 -9.785000 -0.787000 0.000000 0.000000 0.000000 
-7.894000 -9.758000 -0.797000 0.000000 0.000000 0.000000 
-7.903000 -9.769000 -0.810000 0.000000 0.000000 0.000000 
-7.893000 -9.755000 -0.822000 0.000000 0.000000 0.000000 
-7.906000 -9.771000 -0.836000 0.000000 0.000000 0.000000 
-7.892000 -9.754000 -0.847000 0.000000 0.000000 0.000000 
-7.901000 -9.766000 -0.861000 0.000000 0.000000 0.000000 
-7.885000 -9.746000 -0.871000 0.000000 0.000000 0.000000 
-7.894000 -9.757000 -0.885000 0.000000 0.000000 0.000000 
-7.895000 -9.758000 -0.897000 0.000000 0.000000 0.000000 
-7.884000 -9.745000 -0.909000 0.000000 0.000000 0.000000 
-7.894000 -9.756000 -0.923000 0.000000 0.000000 0.000000 
-7.876000 -9.734000 -0.933000 0.000000 0.000000 0.000000 
-7.877000 -9.736000 -0.946000 0.000000 0.000000 0.000000 
-7.886000 -9.747000 -0.959000 0.000000 0.000000 0.000000 
-7.884000 -9.744000 -0.972000 0.000000 0.000000 0.000000 
-7.879000 -9.738000 -0.984000 0.000000 0.000000 0.000000 
-7.871000 -9.728000 -0.995000 0.000000 0.000000 0.000000 
-7.875000 -9.733000 -1.008000 0.000000 0.000000 0.000000 
-7.876000 -9.734000 -1.021000 0.000000 0.000000 0.000000 
-7.871000 -9.728000 -1.033000 0.000000 0.000000 0.000000 
-7.875000 -9.733000 -1.046000 0.000000 0.000000 0.000000 
-7.870000 -9.726000 -1.058000 0.000000 0.000000 0.000000 
-7.867000 -9.723000 -1.070000 0.000000 0.000000 0.000000 
-8.952000 -11.094000 1.232000 0.000000 0.000000 0.000000 
-8.957000 -11.100000 1.218000 0.000000 0.000000 0.000000 
-8.760000 -10.855000 0.856000 0.000000 0.000000 0.000000 
-8.496000 -10.527000 0.600000 0.000000 0.000000 0.000000 
-8.494000 -10.524000 0.586000 0.000000 0.000000 0.000000 
-8.478000 -10.505000 0.572000 0.000000 0.000000 0.000000 
-7.580000 -9.389000 0.162000 0.000000 0.000000 0.000000 
-7.793000 -9.653000 0.142000 0.000000 0.000000 0.000000 
-7.815000 -9.682000 0.130000 0.000000 0.000000 0.000000 
-7.810000 -9.675000 0.117000 0.000000 0.000000 0.000000 
-7.813000 -9.679000 0.105000 0.000000 0.000000 0.000000 
-7.837000 -9.708000 0.093000 0.000000 0.000000 0.000000 
-7.961000 -9.862000 -0.070000 0.000000 0.000000 0.000000 
-7.953000 -9.852000 -0.083000 0.000000 0.000000 0.000000 
-7.910000 -9.798000 -0.748000 0.000000 0.000000 0.000000 
-7.914000 -9.803000 -0.761000 0.000000 0.000000 0.000000 
-7.968000 -9.870000 -0.779000 0.000000 0.000000 0.000000 
-7.906000 -9.793000 -0.786000 0.000000 0.000000 0.000000 
-7.904000 -9.790000 -0.798000 0.000000 0.000000 0.000000 
-7.909000 -9.797000 -0.811000 0.000000 0.000000 0.000000 
-7.901000 -9.787000 -0.823000 0.000000 0.000000 0.000000 
-7.909000 -9.797000 -0.837000 0.000000 0.000000 0.000000 
-7.909000 -9.796000 -0.849000 0.000000 0.000000 0.000000 
-7.915000 -9.805000 -0.862000 0.000000 0.000000 0.000000 
-7.907000 -9.795000 -0.874000 0.000000 0.000000 0.000000 
-7.888000 -9.771000 -0.884000 0.000000 0.000000 0.000000 
-7.893000 -9.777000 -0.897000 0.000000 0.000000 0.000000 
-7.888000 -9.770000 -0.909000 0.000000 0.000000 0.000000 
-7.886000 -9.768000 -0.922000 0.000000 0.000000 0.000000 
-7.885000 -9.767000 -0.934000 0.000000 0.000000 0.000000 
-7.879000 -9.758000 -0.946000 0.000000 0.000000 0.000000 
-7.882000 -9.763000 -0.959000 0.000000 0.000000 0.000000 
-7.884000 -9.766000 -0.972000 0.000000 0.000000 0.000000 
-7.882000 -9.762000 -0.984000 0.000000 0.000000 0.000000 
-7.875000 -9.754000 -0.996000 0.000000 0.000000 0.000000 
-7.867000 -9.745000 -1.008000 0.000000 0.000000 0.000000 
-7.869000 -9.747000 -1.020000 0.000000 0.000000 0.000000 
-7.873000 -9.751000 -1.033000 0.000000 0.000000 0.000000 
-7.873000 -9.751000 -1.046000 0.000000 0.000000 0.000000 
-7.871000 -9.748000 -1.058000 0.000000 0.000000 0.000000 
-8.946000 -11.108000 1.232000 0.000000 0.000000 0.000000 
-8.944000 -11.106000 1.217000 0.000000 0.000000 0.000000 
-8.949000 -11.111000 1.204000 0.000000 0.000000 0.000000 
-8.741000 -10.853000 0.855000 0.000000 0.000000 0.000000 
-8.500000 -10.553000 0.614000 0.000000 0.000000 0.000000 
-8.491000 -10.541000 0.600000 0.000000 0.000000 0.000000 
-8.474000 -10.520000 0.585000 0.000000 0.000000 0.000000 
-7.805000 -9.688000 0.179000 0.000000 0.000000 0.000000 
-7.782000 -9.659000 0.166000 0.000000 0.000000 0.000000 
-7.783000 -9.660000 0.142000 0.000000 0.000000 0.000000 
-7.805000 -9.687000 0.130000 0.000000 0.000000 0.000000 
-7.814000 -9.698000 0.117000 0.000000 0.000000 0.000000 
-7.951000 -9.869000 -0.057000 0.000000 0.000000 0.000000 
-7.946000 -9.863000 -0.070000 0.000000 0.000000 0.000000 
-8.079000 -10.026000 -0.765000 0.000000 0.000000 0.000000 
-8.057000 -10.000000 -0.776000 0.000000 0.000000 0.000000 
-7.899000 -9.803000 -0.824000 0.000000 0.000000 0.000000 
-7.906000 -9.812000 -0.837000 0.000000 0.000000 0.000000 
-7.908000 -9.814000 -0.850000 0.000000 0.000000 0.000000 
-7.923000 -9.832000 -0.864000 0.000000 0.000000 0.000000 
-7.928000 -9.838000 -0.877000 0.000000 0.000000 0.000000 
-7.917000 -9.825000 -0.889000 0.000000 0.000000 0.000000 
-7.909000 -9.814000 -0.900000 0.000000 0.000000 0.000000 
-7.909000 -9.814000 -0.913000 0.000000 0.000000 0.000000 
-7.892000 -9.794000 -0.924000 0.000000 0.000000 0.000000 
-7.899000 -9.803000 -0.937000 0.000000 0.000000 0.000000 
-7.891000 -9.793000 -0.949000 0.000000 0.000000 0.000000 
-7.903000 -9.808000 -0.963000 0.000000 0.000000 0.000000 
-7.877000 -9.776000 -0.972000 0.000000 0.000000 0.000000 
-7.884000 -9.785000 -0.986000 0.000000 0.000000 0.000000 
-7.867000 -9.764000 -0.996000 0.000000 0.000000 0.000000 
-7.886000 -9.786000 -1.011000 0.000000 0.000000 0.000000 
-7.869000 -9.766000 -1.021000 0.000000 0.000000 0.000000 
-7.866000 -9.762000 -1.034000 0.000000 0.000000 0.000000 
-7.867000 -9.764000 -1.047000 0.000000 0.000000 0.000000 
-8.939000 -11.122000 1.217000 0.000000 0.000000 0.000000 
-8.931000 -11.112000 1.202000 0.000000 0.000000 0.000000 
-8.574000 -10.666000 0.838000 0.000000 0.000000 0.000000 
-8.495000 -10.567000 0.627000 0.000000 0.000000 0.000000 
-7.771000 -9.664000 0.202000 0.000000 0.000000 0.000000 
-7.774000 -9.669000 0.190000 0.000000 0.000000 0.000000 
-7.781000 -9.677000 0.178000 0.000000 0.000000 0.000000 
-7.756000 -9.646000 0.165000 0.000000 0.000000 0.000000 
-7.774000 -9.668000 0.140000 0.000000 0.000000 0.000000 
-7.790000 -9.688000 0.129000 0.000000 0.000000 0.000000 
-7.958000 -9.897000 -0.046000 0.000000 0.000000 0.000000 
-7.946000 -9.882000 -0.058000 0.000000 0.000000 0.000000 
-8.079000 -10.047000 -0.754000 0.000000 0.000000 0.000000 
-7.904000 -9.829000 -0.839000 0.000000 0.000000 0.000000 
-7.902000 -9.826000 -0.851000 0.000000 0.000000 0.000000 
-7.900000 -9.824000 -0.864000 0.000000 0.000000 0.000000 
-7.923000 -9.852000 -0.879000 0.000000 0.000000 0.000000 
-7.917000 -9.846000 -0.891000 0.000000 0.000000 0.000000 
-7.905000 -9.830000 -0.902000 0.000000 0.000000 0.000000 
-7.906000 -9.832000 -0.915000 0.000000 0.000000 0.000000 
-7.898000 -9.821000 -0.927000 0.000000 0.000000 0.000000 
-7.891000 -9.812000 -0.938000 0.000000 0.000000 0.000000 
-7.898000 -9.821000 -0.952000 0.000000 0.000000 0.000000 
-7.917000 -9.844000 -0.967000 0.000000 0.000000 0.000000 
-7.904000 -9.829000 -0.978000 0.000000 0.000000 0.000000 
-7.887000 -9.807000 -0.988000 0.000000 0.000000 0.000000 
-7.893000 -9.815000 -1.002000 0.000000 0.000000 0.000000 
-7.877000 -9.795000 -1.012000 0.000000 0.000000 0.000000 
-7.875000 -9.792000 -1.024000 0.000000 0.000000 0.000000 
-7.879000 -9.798000 -1.038000 0.000000 0.000000 0.000000 
-8.945000 -11.152000 1.250000 0.000000 0.000000 0.000000 
-8.921000 -11.123000 1.217000 0.000000 0.000000 0.000000 
-8.863000 -11.050000 1.196000 0.000000 0.000000 0.000000 
-8.837000 -11.018000 1.178000 0.000000 0.000000 0.000000 
-8.848000 -11.032000 1.165000 0.000000 0.000000 0.000000 
-8.840000 -11.022000 1.107000 0.000000 0.000000 0.000000 
-7.751000 -9.660000 0.228000 0.000000 0.000000 0.000000 
-7.765000 -9.678000 0.216000 0.000000 0.000000 0.000000 
-7.765000 -9.678000 0.203000 0.000000 0.000000 0.000000 
-7.763000 -9.675000 0.191000 0.000000 0.000000 0.000000 
-7.764000 -9.676000 0.179000 0.000000 0.000000 0.000000 
-7.768000 -9.682000 0.166000 0.000000 0.000000 0.000000 
-7.763000 -9.676000 0.142000 0.000000 0.000000 0.000000 
-7.946000 -9.903000 -0.045000 0.000000 0.000000 0.000000 
-7.936000 -9.891000 -0.057000 0.000000 0.000000 0.000000 
-7.905000 -9.851000 -0.839000 0.000000 0.000000 0.000000 
-7.890000 -9.832000 -0.850000 0.000000 0.000000 0.000000 
-7.902000 -9.846000 -0.864000 0.000000 0.000000 0.000000 
-7.908000 -9.854000 -0.877000 0.000000 0.000000 0.000000 
-7.902000 -9.847000 -0.889000 0.000000 0.000000 0.000000 
-7.895000 -9.837000 -0.901000 0.000000 0.000000 0.000000 
-7.883000 -9.823000 -0.912000 0.000000 0.000000 0.000000 
-7.901000 -9.846000 -0.965000 0.000000 0.000000 0.000000 
-7.903000 -9.849000 -0.978000 0.000000 0.000000 0.000000 
-7.921000 -9.871000 -0.993000 0.000000 0.000000 0.000000 
-7.909000 -9.856000 -1.017000 0.000000 0.000000 0.000000 
-8.871000 -11.081000 1.212000 0.000000 0.000000 0.000000 
-8.834000 -11.035000 1.193000 0.000000 0.000000 0.000000 
-8.832000 -11.033000 1.178000 0.000000 0.000000 0.000000 
-8.839000 -11.041000 1.165000 0.000000 0.000000 0.000000 
-8.538000 -10.664000 0.687000 0.000000 0.000000 0.000000 
-7.726000 -9.648000 0.252000 0.000000 0.000000 0.000000 
-7.738000 -9.663000 0.228000 0.000000 0.000000 0.000000 
-7.750000 -9.678000 0.216000 0.000000 0.000000 0.000000 
-7.748000 -9.675000 0.203000 0.000000 0.000000 0.000000 
-7.750000 -9.678000 0.191000 0.000000 0.000000 0.000000 
-7.750000 -9.678000 0.179000 0.000000 0.000000 0.000000 
-7.753000 -9.681000 0.166000 0.000000 0.000000 0.000000 
-7.486000 -9.347000 0.149000 0.000000 0.000000 0.000000 
-7.945000 -9.921000 -0.032000 0.000000 0.000000 0.000000 
-7.943000 -9.920000 -0.045000 0.000000 0.000000 0.000000 
-7.931000 -9.905000 -0.057000 0.000000 0.000000 0.000000 
-7.915000 -9.882000 -0.841000 0.000000 0.000000 0.000000 
-7.897000 -9.860000 -0.852000 0.000000 0.000000 0.000000 
-7.886000 -9.846000 -0.863000 0.000000 0.000000 0.000000 
-7.887000 -9.848000 -0.876000 0.000000 0.000000 0.000000 
-7.889000 -9.850000 -0.889000 0.000000 0.000000 0.000000 
-7.879000 -9.837000 -0.900000 0.000000 0.000000 0.000000 
-7.867000 -9.822000 -0.949000 0.000000 0.000000 0.000000 
-7.970000 -9.951000 -0.974000 0.000000 0.000000 0.000000 
-7.967000 -9.947000 -0.987000 0.000000 0.000000 0.000000 
-8.893000 -11.132000 1.201000 0.000000 0.000000 0.000000 
-8.890000 -11.127000 1.186000 0.000000 0.000000 0.000000 
-8.831000 -11.054000 1.165000 0.000000 0.000000 0.000000 
-8.849000 -11.076000 1.039000 0.000000 0.000000 0.000000 
-7.721000 -9.661000 0.276000 0.000000 0.000000 0.000000 
-7.730000 -9.673000 0.264000 0.000000 0.000000 0.000000 
-7.725000 -9.666000 0.251000 0.000000 0.000000 0.000000 
-7.729000 -9.671000 0.239000 0.000000 0.000000 0.000000 
-7.725000 -9.665000 0.226000 0.000000 0.000000 0.000000 
-7.735000 -9.678000 0.215000 0.000000 0.000000 0.000000 
-7.732000 -9.675000 0.202000 0.000000 0.000000 0.000000 
-7.733000 -9.675000 0.190000 0.000000 0.000000 0.000000 
-7.747000 -9.693000 0.178000 0.000000 0.000000 0.000000 
-7.943000 -9.939000 -0.021000 0.000000 0.000000 0.000000 
-7.932000 -9.925000 -0.033000 0.000000 0.000000 0.000000 
-7.880000 -9.859000 -0.852000 0.000000 0.000000 0.000000 
-7.884000 -9.863000 -0.865000 0.000000 0.000000 0.000000 
-7.879000 -9.858000 -0.877000 0.000000 0.000000 0.000000 
-7.852000 -9.824000 -0.887000 0.000000 0.000000 0.000000 
-7.857000 -9.830000 -0.900000 0.000000 0.000000 0.000000 
-7.990000 -9.996000 -0.967000 0.000000 0.000000 0.000000 
-7.984000 -9.989000 -0.978000 0.000000 0.000000 0.000000 
-8.812000 -11.053000 1.179000 0.000000 0.000000 0.000000 
-8.845000 -11.094000 1.169000 0.000000 0.000000 0.000000 
-8.904000 -11.168000 1.162000 0.000000 0.000000 0.000000 
-8.899000 -11.162000 1.147000 0.000000 0.000000 0.000000 
-8.888000 -11.148000 1.132000 0.000000 0.000000 0.000000 
-8.886000 -11.145000 1.117000 0.000000 0.000000 0.000000 
-7.704000 -9.659000 0.301000 0.000000 0.000000 0.000000 
-7.709000 -9.665000 0.277000 0.000000 0.000000 0.000000 
-7.707000 -9.663000 0.264000 0.000000 0.000000 0.000000 
-7.710000 -9.667000 0.252000 0.000000 0.000000 0.000000 
-7.717000 -9.675000 0.240000 0.000000 0.000000 0.000000 
-7.720000 -9.679000 0.228000 0.000000 0.000000 0.000000 
-7.723000 -9.683000 0.216000 0.000000 0.000000 0.000000 
-7.727000 -9.688000 0.203000 0.000000 0.000000 0.000000 
-7.739000 -9.703000 0.191000 0.000000 0.000000 0.000000 
-7.458000 -9.350000 0.137000 0.000000 0.000000 0.000000 
-7.951000 -9.971000 -0.007000 0.000000 0.000000 0.000000 
-7.933000 -9.947000 -0.020000 0.000000 0.000000 0.000000 
-7.941000 -9.957000 -0.032000 0.000000 0.000000 0.000000 
-7.980000 -10.004000 -0.965000 0.000000 0.000000 0.000000 
-8.913000 -11.200000 1.208000 0.000000 0.000000 0.000000 
-8.797000 -11.055000 1.178000 0.000000 0.000000 0.000000 
-8.907000 -11.193000 1.164000 0.000000 0.000000 0.000000 
-8.888000 -11.170000 1.147000 0.000000 0.000000 0.000000 
-8.816000 -11.079000 1.039000 0.000000 0.000000 0.000000 
-8.803000 -11.062000 1.023000 0.000000 0.000000 0.000000 
-8.757000 -11.005000 0.961000 0.000000 0.000000 0.000000 
-8.738000 -10.980000 0.945000 0.000000 0.000000 0.000000 
-8.727000 -10.966000 0.930000 0.000000 0.000000 0.000000 
-8.706000 -10.940000 0.913000 0.000000 0.000000 0.000000 
-7.684000 -9.654000 0.325000 0.000000 0.000000 0.000000 
-7.692000 -9.663000 0.301000 0.000000 0.000000 0.000000 
-7.695000 -9.667000 0.289000 0.000000 0.000000 0.000000 
-7.698000 -9.671000 0.277000 0.000000 0.000000 0.000000 
-7.699000 -9.672000 0.264000 0.000000 0.000000 0.000000 
-7.697000 -9.670000 0.252000 0.000000 0.000000 0.000000 
-7.712000 -9.688000 0.240000 0.000000 0.000000 0.000000 
-7.704000 -9.679000 0.227000 0.000000 0.000000 0.000000 
-7.430000 -9.334000 0.136000 0.000000 0.000000 0.000000 
-7.945000 -9.981000 -0.007000 0.000000 0.000000 0.000000 
-7.929000 -9.961000 -0.020000 0.000000 0.000000 0.000000 
-8.000000 -10.049000 -0.956000 0.000000 0.000000 0.000000 
-8.795000 -11.075000 1.192000 0.000000 0.000000 0.000000 
-8.783000 -11.060000 1.176000 0.000000 0.000000 0.000000 
-8.855000 -11.150000 1.172000 0.000000 0.000000 0.000000 
-8.850000 -11.144000 1.114000 0.000000 0.000000 0.000000 
-8.847000 -11.141000 1.100000 0.000000 0.000000 0.000000 
-8.826000 -11.114000 1.082000 0.000000 0.000000 0.000000 
-8.823000 -11.110000 1.068000 0.000000 0.000000 0.000000 
-8.818000 -11.103000 1.053000 0.000000 0.000000 0.000000 
-8.774000 -11.049000 1.005000 0.000000 0.000000 0.000000 
-8.774000 -11.049000 0.991000 0.000000 0.000000 0.000000 
-8.757000 -11.027000 0.975000 0.000000 0.000000 0.000000 
-8.745000 -11.012000 0.960000 0.000000 0.000000 0.000000 
-7.671000 -9.656000 0.361000 0.000000 0.000000 0.000000 
-7.687000 -9.676000 0.325000 0.000000 0.000000 0.000000 
-7.686000 -9.675000 0.312000 0.000000 0.000000 0.000000 
-7.677000 -9.663000 0.300000 0.000000 0.000000 0.000000 
-7.682000 -9.670000 0.288000 0.000000 0.000000 0.000000 
-7.680000 -9.667000 0.275000 0.000000 0.000000 0.000000 
-7.680000 -9.667000 0.263000 0.000000 0.000000 0.000000 
-7.418000 -9.337000 0.135000 0.000000 0.000000 0.000000 
-7.404000 -9.318000 0.123000 0.000000 0.000000 0.000000 
-7.936000 -9.990000 0.005000 0.000000 0.000000 0.000000 
-7.931000 -9.983000 -0.008000 0.000000 0.000000 0.000000 
-7.978000 -10.041000 -0.943000 0.000000 0.000000 0.000000 
-8.776000 -11.074000 1.193000 0.000000 0.000000 0.000000 
-8.868000 -11.190000 1.162000 0.000000 0.000000 0.000000 
-8.865000 -11.186000 1.147000 0.000000 0.000000 0.000000 
-8.858000 -11.177000 1.132000 0.000000 0.000000 0.000000 
-8.847000 -11.163000 1.116000 0.000000 0.000000 0.000000 
-8.839000 -11.153000 1.101000 0.000000 0.000000 0.000000 
-8.820000 -11.130000 1.084000 0.000000 0.000000 0.000000 
-7.649000 -9.649000 0.386000 0.000000 0.000000 0.000000 
-7.659000 -9.661000 0.374000 0.000000 0.000000 0.000000 
-7.651000 -9.652000 0.362000 0.000000 0.000000 0.000000 
-7.645000 -9.644000 0.349000 0.000000 0.000000 0.000000 
-7.658000 -9.660000 0.338000 0.000000 0.000000 0.000000 
-7.670000 -9.675000 0.326000 0.000000 0.000000 0.000000 
-7.665000 -9.669000 0.313000 0.000000 0.000000 0.000000 
-7.670000 -9.676000 0.301000 0.000000 0.000000 0.000000 
-7.668000 -9.673000 0.288000 0.000000 0.000000 0.000000 
-7.673000 -9.680000 0.277000 0.000000 0.000000 0.000000 
-7.412000 -9.350000 0.125000 0.000000 0.000000 0.000000 
-7.932000 -10.007000 0.018000 0.000000 0.000000 0.000000 
-7.938000 -10.014000 0.006000 0.000000 0.000000 0.000000 
-8.820000 -11.151000 1.086000 0.000000 0.000000 0.000000 
-7.631000 -9.644000 0.410000 0.000000 0.000000 0.000000 
-7.650000 -9.668000 0.399000 0.000000 0.000000 0.000000 
-7.648000 -9.666000 0.387000 0.000000 0.000000 0.000000 
-7.653000 -9.672000 0.374000 0.000000 0.000000 0.000000 
-7.655000 -9.675000 0.362000 0.000000 0.000000 0.000000 
-7.645000 -9.662000 0.349000 0.000000 0.000000 0.000000 
-7.651000 -9.670000 0.338000 0.000000 0.000000 0.000000 
-7.655000 -9.675000 0.325000 0.000000 0.000000 0.000000 
-7.657000 -9.677000 0.313000 0.000000 0.000000 0.000000 
-7.661000 -9.682000 0.301000 0.000000 0.000000 0.000000 
-7.670000 -9.694000 0.289000 0.000000 0.000000 0.000000 
-7.385000 -9.332000 0.124000 0.000000 0.000000 0.000000 
-7.932000 -10.026000 0.031000 0.000000 0.000000 0.000000 
-7.923000 -10.014000 0.018000 0.000000 0.000000 0.000000 
-7.934000 -10.028000 0.006000 0.000000 0.000000 0.000000 
-7.632000 -9.665000 0.410000 0.000000 0.000000 0.000000 
-7.629000 -9.663000 0.397000 0.000000 0.000000 0.000000 
-7.641000 -9.677000 0.386000 0.000000 0.000000 0.000000 
-7.631000 -9.664000 0.373000 0.000000 0.000000 0.000000 
-7.636000 -9.671000 0.361000 0.000000 0.000000 0.000000 
-7.636000 -9.671000 0.348000 0.000000 0.000000 0.000000 
-7.644000 -9.680000 0.337000 0.000000 0.000000 0.000000 
-7.386000 -9.354000 0.123000 0.000000 0.000000 0.000000 
-7.935000 -10.049000 0.043000 0.000000 0.000000 0.000000 
-7.923000 -10.035000 0.030000 0.000000 0.000000 0.000000 
-7.918000 -10.028000 0.017000 0.000000 0.000000 0.000000 
-8.814000 -11.189000 1.145000 0.000000 0.000000 0.000000 
-7.622000 -9.674000 0.435000 0.000000 0.000000 0.000000 
-7.614000 -9.664000 0.423000 0.000000 0.000000 0.000000 
-7.617000 -9.667000 0.410000 0.000000 0.000000 0.000000 
-7.616000 -9.666000 0.398000 0.000000 0.000000 0.000000 
-7.622000 -9.674000 0.386000 0.000000 0.000000 0.000000 
-7.629000 -9.683000 0.374000 0.000000 0.000000 0.000000 
-7.634000 -9.690000 0.362000 0.000000 0.000000 0.000000 
-7.917000 -10.049000 0.044000 0.000000 0.000000 0.000000 
-7.915000 -10.047000 0.031000 0.000000 0.000000 0.000000 
-8.807000 -11.203000 1.203000 0.000000 0.000000 0.000000 
-8.821000 -11.221000 1.147000 0.000000 0.000000 0.000000 
-7.607000 -9.673000 0.435000 0.000000 0.000000 0.000000 
-7.607000 -9.674000 0.423000 0.000000 0.000000 0.000000 
-7.605000 -9.671000 0.410000 0.000000 0.000000 0.000000 
-7.604000 -9.670000 0.398000 0.000000 0.000000 0.000000 
-7.618000 -9.687000 0.386000 0.000000 0.000000 0.000000 
-7.911000 -10.060000 0.057000 0.000000 0.000000 0.000000 
-7.902000 -10.048000 0.044000 0.000000 0.000000 0.000000 
-8.780000 -11.191000 1.185000 0.000000 0.000000 0.000000 
-7.595000 -9.678000 0.446000 0.000000 0.000000 0.000000 
-7.597000 -9.681000 0.434000 0.000000 0.000000 0.000000 
-7.597000 -9.680000 0.422000 0.000000 0.000000 0.000000 
-7.610000 -9.697000 0.398000 0.000000 0.000000 0.000000 
-7.913000 -10.083000 0.081000 0.000000 0.000000 0.000000 
-7.919000 -10.092000 0.069000 0.000000 0.000000 0.000000 
-7.914000 -10.085000 0.056000 0.000000 0.000000 0.000000 
-8.752000 -11.180000 1.198000 0.000000 0.000000 0.000000 
-7.577000 -9.676000 0.459000 0.000000 0.000000 0.000000 
-7.576000 -9.674000 0.447000 0.000000 0.000000 0.000000 
-7.915000 -10.108000 0.083000 0.000000 0.000000 0.000000 
-7.920000 -10.115000 0.070000 0.000000 0.000000 0.000000 
-7.904000 -10.114000 0.096000 0.000000 0.000000 0.000000 
-7.900000 -10.108000 0.082000 0.000000 0.000000 0.000000 
-7.907000 -10.139000 0.107000 0.000000 0.000000 0.000000 
-7.902000 -10.132000 0.094000 0.000000 0.000000 0.000000 
-7.917000 -10.174000 0.135000 0.000000 0.000000 0.000000 
-7.906000 -10.159000 0.121000 0.000000 0.000000 0.000000 
-7.897000 -10.148000 0.108000 0.000000 0.000000 0.000000 
-7.908000 -10.181000 0.147000 0.000000 0.000000 0.000000 
-7.907000 -10.180000 0.135000 0.000000 0.000000 0.000000 
-7.894000 -10.163000 0.121000 0.000000 0.000000 0.000000 
-7.917000 -10.214000 0.159000 0.000000 0.000000 0.000000 
-7.901000 -10.194000 0.146000 0.000000 0.000000 0.000000 
-7.898000 -10.190000 0.133000 0.000000 0.000000 0.000000 
-7.913000 -10.231000 0.173000 0.000000 0.000000 0.000000 
-7.904000 -10.218000 0.161000 0.000000 0.000000 0.000000 
-7.893000 -10.204000 0.147000 0.000000 0.000000 0.000000 
-7.901000 -10.235000 0.186000 0.000000 0.000000 0.000000 
-7.906000 -10.241000 0.173000 0.000000 0.000000 0.000000 
-7.904000 -10.239000 0.161000 0.000000 0.000000 0.000000 
-7.901000 -10.256000 0.199000 0.000000 0.000000 0.000000 
-7.894000 -10.246000 0.185000 0.000000 0.000000 0.000000 
-7.893000 -10.245000 0.172000 0.000000 0.000000 0.000000 
-7.900000 -10.277000 0.213000 0.000000 0.000000 0.000000 
-7.883000 -10.254000 0.199000 0.000000 0.000000 0.000000 
-7.885000 -10.257000 0.186000 0.000000 0.000000 0.000000 
-7.901000 -10.298000 0.226000 0.000000 0.000000 0.000000 
-7.892000 -10.286000 0.213000 0.000000 0.000000 0.000000 
-7.911000 -10.332000 0.251000 0.000000 0.000000 0.000000 
-7.889000 -10.303000 0.237000 0.000000 0.000000 0.000000 
-7.901000 -10.319000 0.225000 0.000000 0.000000 0.000000 
-7.893000 -10.330000 0.252000 0.000000 0.000000 0.000000 
-7.884000 -10.319000 0.239000 0.000000 0.000000 0.000000 
-7.897000 -10.355000 0.265000 0.000000 0.000000 0.000000 
