2.85938 -3.28125 -0.753
2.98438 -3.375 -0.759
3.10938 -3.40625 -0.75
3.14062 -3.5 -0.738
3.24219 -3.5625 -0.558
3.24219 -3.53125 -0.512
3.20312 -3.625 -0.571
3.24219 -3.625 -0.563
3.23438 -3.6875 -0.508
3.17969 -3.78125 -0.376
3.28125 -3.625 -0.502
3.38281 -3.65625 -0.437
2.9375 -3.4375 -0.511
2.85625 -3.11875 -0.8122
2.91406 -3.09375 -0.776
2.92188 -3.125 -0.748
3.01562 -3.125 -0.66
3.11719 -3.0625 -0.372
3.15625 -3.09375 -0.345
3.17969 -3.09375 -0.12
3.28906 -3 -0.289
3.28906 -3.03125 -0.231
3.25781 -3 -0.159
3.30469 -2.96875 -0.011
3.02344 -3.25 -0.464
3.05469 -3.34375 -0.272
3.15625 -3.28125 -0.194
2.53906 -2.96875 -0.982
2.42969 -3.09375 -0.859
2.71094 -2.875 -1.067
2.74219 -2.90625 -1.065
2.82031 -2.875 -1.091
3.1875 -2.78125 -1.012
2.63281 -3.0625 -1.158
2.76562 -3.1875 -1.18
2.46094 -2.9375 -1.232
2.03125 -2.78125 -1.146
2.17188 -2.84375 -0.96
2.21875 -2.8125 -0.836
2.20312 -2.78125 -0.834
2.33594 -2.6875 -0.76
2.42188 -2.59375 -0.686
2.52344 -2.75 -0.573
2.59375 -2.84375 -0.467
2.50781 -2.78125 -0.585
2.5625 -2.90625 -0.526
2.59375 -2.9375 -0.523
2.64844 -2.96875 -0.483
2.76562 -3 -0.368
2.90625 -3.15625 -0.101
2.39062 -2.53125 -0.53
2.46875 -2.3125 -0.396
2.46875 -2.1875 -0.312
2.34375 -2.46875 0.165
2.53125 -2.625 -0.752
2.60938 -2.65625 -0.672
2.65625 -2.71875 -0.515
2.71875 -2.75 -0.33
2.74219 -2.8125 -0.186
2.5 -2.5625 0.284
2.45312 -2.65625 0.341
2.8125 -3 0.042
2.96094 -3 0.031
3.07031 -3.09375 0.121
3.03125 -3.03125 0.3
3.00781 -3.0625 0.361
2.82031 -2.96875 0.299
2.79688 -2.625 -0.512
2.83594 -2.59375 -0.427
2.875 -2.59375 -0.435
2.92188 -2.53125 -0.372
3.07812 -2.46875 -0.36
3.19531 -2.5 -0.302
3.20312 -2.40625 -0.332
3.26562 -2.46875 -0.409
3.25 -2.34375 -0.285
3.3125 -2.34375 -0.184
3.35156 -2.34375 -0.191
3.33594 -2.28125 -0.243
3.39062 -2.25 -0.211
3.45312 -2.1875 -0.219
3.64062 -2.03125 -0.133
3.25781 -2 -0.196
3.53906 -2.3125 -0.319
3.52344 -2.375 -0.32
3.59375 -2.3125 -0.321
3.60938 -2.28125 -0.434
3.28125 -2.40625 -0.222
3.01562 -2.5625 -0.296
3.08594 -2.40625 -0.137
3.07812 -2.375 -0.071
3.02344 -2.34375 0.004
2.98438 -2.34375 0.005
2.91406 -2.15625 0.165
2.84375 -2.25 0.46
2.46094 -2.25 0.605
2.98438 -2.15625 0.178
3.01562 -1.9375 0.146
3.04688 -1.875 0.113
3.07031 -1.9375 0.215
3.17969 -1.9375 0.21
3.03906 -1.875 0.283
3.05469 -1.90625 0.373
3.10938 -1.90625 0.41
3.19531 -2.125 0.628
3.05469 -1.8125 0.661
3.25 -2.0625 0.65
3.16406 -1.75 0.544
3.10156 -1.71875 0.677
3.11719 -1.65625 0.855
3.09375 -1.65625 0.872
3.02344 -1.75 1.126
2.76562 -2.0625 1.195
2.67969 -2.125 1.215
2.61719 -2.25 1.306
3.01562 -1.5625 0.928
2.99219 -1.53125 1.016
3.13281 -1.84375 0.317
3.13281 -2.5 -0.053
3 -2.625 -0.418
3.03906 -2.625 -0.44
2.6875 -2.875 -0.608
2.35938 -2.5625 -0.531
1.97266 -2.28125 -0.4105
1.97266 -2.28125 -0.4105
2.46094 -2.84375 -0.594
2.39844 -2.84375 -0.539
2.46875 -2.875 -0.61
2.16406 -3.03125 -0.832
2.27344 -3.0625 -0.714
2.35156 -3.21875 -0.657
2.34375 -3.34375 -0.641
2.4375 -3.4375 -0.563
2.41406 -3.40625 -0.473
2.4375 -3.40625 -0.459
2.57031 -3.5625 -0.384
2.53125 -3.65625 -0.311
2.5625 -3.65625 -0.25
2.35938 -3.5625 -0.117
2.34375 -3.59375 -0.063
2.34375 -3.59375 -0.044
2.60938 -3.59375 -0.161
2.55469 -3.78125 0.05
2.53906 -3.46875 -0.077
2.59375 -3.46875 0.089
2.67188 -3.46875 0.134
2.625 -3.375 0.22
2.46875 -3.59375 0.018
2.61719 -3.9375 -0.158
2.48438 -3.625 -0.408
2.375 -3.09375 -0.663
2.41406 -3.15625 -0.698
2.39844 -3.19531 -0.69325
2.52344 -3.25 -0.654
2.53125 -3.28125 -0.628
2.6875 -3.3125 -0.425
2.71875 -3.4375 -0.398
2.77344 -3.34375 -0.302
2.875 -3.375 -0.103
2.79688 -3.34375 0.131
2.83594 -3.46875 -0.118
2.88281 -3.46875 -0.086
2.89844 -3.46875 0.124
2.85938 -3.5 0.281
2.98438 -3.46875 0.13
3.03906 -3.46875 0.072
3.09375 -3.5 0.179
3.07031 -3.4375 0.064
2.96875 -3.625 -0.074
2.5625 -3.25 -0.717
2.51562 -3.34375 -0.888
2.21875 -3.0625 -0.686
2.24219 -3.1875 -0.707
2.09375 -2.84375 -0.956
2.02344 -2.78125 -0.773
1.94531 -2.90625 -0.484
1.89062 -3.03125 -0.349
1.89844 -3.21875 -0.39
1.875 -3.28125 -0.157
1.94531 -3.375 -0.034
2.01562 -3.375 0.018
2.20312 -3.40625 0.299
1.98438 -3.40625 -0.233
2.07031 -2.71875 -0.732
2.01172 -2.85156 -1.52312
2.0625 -2.9375 -1.475
2.21875 -3.03125 -1.456
2.14844 -3.09375 -1.443
2.16406 -3.09375 -1.432
2.07031 -2.9375 -1.641
2.03906 -2.96875 -1.612
2.15625 -3.125 -1.587
2.22656 -3.28125 -1.56
2.16406 -3.40625 -1.373
2.21094 -3.375 -1.581
2.32031 -3.28125 -1.526
2.33594 -3.4375 -1.481
2.44531 -3.5 -1.555
2.49219 -3.53125 -1.467
2.44531 -3.5625 -1.531
2.49665 -3.60268 -1.494
2.50781 -3.6875 -1.383
2.49665 -3.60268 -1.494
2.58594 -3.625 -1.479
2.6875 -3.6875 -1.359
2.78125 -3.6875 -1.276
2.78125 -3.65625 -1.195
2.30469 -3.25 -1.602
2.46094 -3.21875 -1.668
2.55469 -3.21875 -1.542
2.375 -2.8125 -1.503
2.41406 -2.75 -1.484
2.48828 -2.67708 -1.49583
2.55469 -2.65625 -1.485
2.58594 -2.59375 -1.498
2.82812 -2.5625 -1.268
2.52344 -2.59375 -1.491
1.3125 -2.34375 -2.427
1.22656 -2.3125 -2.123
1.08594 -2.5625 -1.824
1.00781 -2.5 -1.76
0.958008 -2.51953 -1.74
0.960156 -2.55313 -1.7219
0.890625 -2.59375 -1.746
0.890625 -2.625 -1.7
0.729911 -2.79464 -1.65929
0.71875 -2.96875 -1.908
0.703125 -3.21875 -1.944
0.71875 -3.28125 -1.908
0.742188 -3.375 -1.881
0.820313 -3.40625 -1.9
0.820313 -3.4375 -1.94
0.84375 -3.4375 -1.897
1.19531 -3.6375 -1.9288
1.19531 -3.6375 -1.9288
0.757813 -3.5625 -1.879
1.19531 -3.6375 -1.9288
1.19531 -3.6375 -1.9288
0.702637 -3.54102 -1.868
0.726563 -3.625 -1.779
0.703125 -3.65625 -1.82
0.734375 -3.6875 -1.801
0.773438 -3.84375 -1.792
0.734375 -3.90625 -1.775
0.78125 -3.9375 -1.764
0.757813 -4 -1.681
0.789063 -4.09375 -1.723
0.789063 -4.125 -1.698
0.757813 -4.21875 -1.639
0.679688 -4.28125 -1.659
0.6875 -4.3125 -1.665
0.708097 -4.34659 -1.72082
0.728795 -4.36161 -1.72107
0.820313 -4.40625 -1.771
0.731534 -4.4233 -1.75027
0.804688 -4.4375 -1.795
0.726563 -4.5625 -1.771
0.703125 -4.625 -1.714
0.640625 -4.34375 -1.768
0.625 -4.375 -1.756
0.734375 -4.21875 -1.593
0.835938 -4.375 -1.653
0.8125 -4.15625 -1.617
0.882813 -4.25 -1.558
0.96875 -4.25 -1.525
1.20312 -4.25 -1.344
1.27344 -4.21875 -1.248
1.38281 -4.1875 -1.264
1.35938 -4.3125 -1.393
1.25781 -4.125 -1.386
1.40625 -4.1875 -1.416
1.44531 -4.21875 -1.491
1.23438 -4.375 -1.381
1.05469 -4.3125 -1.613
1.23438 -4.46875 -1.458
1.17188 -4.46875 -1.346
1.21094 -4.59375 -1.299
1.08594 -4.3125 -1.23
0.804688 -4.375 -1.517
0.898438 -4.1875 -1.769
0.929688 -4.21875 -1.758
0.851563 -4.3125 -1.742
0.71875 -4.09375 -1.688
0.84375 -3.78125 -1.752
0.671875 -3.375 -1.939
0.693015 -3.40441 -1.91147
0.632813 -3.4375 -1.953
0.601563 -3.53125 -1.85
0.578125 -3.40625 -1.909
0.578125 -3.40625 -1.894
0.546875 -3.5 -1.89
0.507813 -3.59375 -1.895
0.53125 -3.625 -1.858
0.46875 -3.65625 -1.838
0.460938 -3.71875 -1.812
0.46875 -3.75 -1.837
0.429688 -3.75 -1.922
0.554688 -2.90625 -1.501
1.11719 -2.65625 -1.631
1.14844 -2.625 -1.496
1.21094 -2.625 -1.493
1.21875 -2.5625 -1.488
1.25 -2.53125 -1.436
1.28125 -2.46875 -1.478
1.21094 -2.5625 -1.521
1.14844 -2.625 -1.486
1.14844 -2.65625 -1.483
1.17188 -2.21875 -1.798
1.23438 -2.1875 -1.251
1.25 -2.28125 -0.925
1.26562 -2.125 -0.807
1.28125 -2.03125 -0.74
1.35156 -2 -0.791
1.39844 -1.96875 -0.708
1.35938 -1.875 -0.602
1.39062 -1.875 -0.481
1.48438 -1.8125 -0.028
1.14062 -2.03125 0.109
1.14062 -2.03125 0.156
1.10938 -2.03125 0.31
1.16406 -2 0.422
1.08594 -1.96875 0.507
1.21094 -1.9375 0.78
1.22656 -1.78125 0.935
1.14062 -1.75 0.947
1 -1.625 1.005
0.898438 -1.5625 1.012
0.875 -1.53125 1.121
0.859375 -1.5625 1.152
1.09375 -1.59375 1.17
1.21094 -1.625 1.273
1.13281 -1.5 1.368
1.20312 -1.3125 1.558
1.20312 -1.28125 1.732
1.09375 -1.25 1.76
0.984375 -1.15625 2.012
1.03906 -1.125 2.161
1.32031 -1.21875 1.821
1.36719 -1.15625 1.895
1.27344 -1.15625 1.781
0.953125 -1.875 0.704
1.07031 -1.9375 0.9
1.08594 -1.90625 1.078
0.890625 -1.90625 1.308
0.835938 -1.875 1.407
0.71875 -1.875 1.343
0.539063 -1.9375 1.337
0.757813 -1.78125 1.434
0.679688 -1.8125 1.508
0.609375 -1.75 1.735
0.539063 -1.875 1.857
0.59375 -1.9375 2.106
0.585938 -1.96875 2.128
0.648438 -1.96875 2.352
0.335938 -1.96875 1.807
0.414063 -1.90625 1.969
0.265625 -2.03125 2.046
0.132813 -1.96875 2.194
0.101563 -1.96875 2.326
0.148438 -1.9375 2.404
0.164063 -1.90625 2.42
0.179688 -1.875 2.418
0.078125 -1.75 2.36
0.078125 -1.75 2.471
-0.054687 -1.6875 2.428
0.085938 -1.71875 2.42
0.460938 -2.03125 2.051
0.523438 -2.0625 2.137
0.476563 -2.125 2.287
0.390625 -2.21875 2.444
0.34375 -2.3125 2.497
0.382813 -2.28125 2.606
0.445313 -2.1875 2.514
0.453125 -2.25 2.631
0.273438 -2.1875 2.545
0.484375 -1.8125 2.13
0.4375 -1.84375 2.207
0.414063 -1.90625 2.297
0.351563 -1.875 2.486
0.195313 -1.875 2.528
0.179688 -1.9375 2.697
0.203125 -1.8125 2.601
0.390625 -1.78125 2.576
0.375 -1.65625 2.573
0.320313 -1.5625 2.556
0.34375 -1.71875 2.645
0.296875 -1.75 2.654
0.289063 -1.78125 2.677
0.234375 -1.8125 2.654
0.1875 -1.78125 2.876
0.257813 -1.65625 3
0.398438 -1.625 2.776
0.273438 -1.65625 2.644
0.164063 -1.625 2.807
0.179688 -1.375 2.822
0.179688 -1.3125 2.874
0.25 -1.8125 2.455
0.132813 -1.6875 2.488
0.117188 -1.6875 2.459
0.046875 -1.625 2.496
-0.078125 -1.6875 2.651
-0.054687 -1.5625 2.649
-0.132812 -1.4375 2.73
0.476563 -1.75 2.249
0.601563 -1.65625 2.435
0.492188 -1.59375 2.468
0.453125 -1.53125 2.517
0.375 -1.46875 2.555
0.429688 -1.375 2.59
0.4375 -1.3125 2.634
0.28125 -1.46875 2.562
0.40625 -1.59375 2.467
0.367188 -1.46875 2.44
0.398438 -1.375 2.453
0.242188 -1.71875 2.361
0.140625 -1.65625 2.443
0.648438 -2.03125 1.556
0.609375 -2.09375 1.585
0.867188 -1.53125 1.603
0.867188 -1.59375 1.756
0.757813 -1.96875 1.244
0.6875 -2.03125 1.224
0.695313 -2.03125 1.271
0.875 -2.09375 1.046
1.09375 -1.96875 0.183
0.960938 -1.9375 0.182
0.734375 -1.96875 0.308
0.585938 -1.9375 0.438
0.539063 -1.875 0.556
0.492188 -1.8125 0.554
0.421875 -1.71875 0.635
0.320313 -1.625 0.621
0.414063 -1.625 0.486
0.46875 -1.875 0.631
0.421875 -1.9375 0.686
0.351563 -1.90625 0.724
0.257813 -1.90625 0.782
0.226563 -1.9375 0.789
0.109375 -1.9375 0.765
0.039063 -2 0.981
0.046875 -2.03125 0.992
-0.054687 -1.96875 0.98
0.203125 -1.8125 0.89
0.140625 -1.8125 0.877
0.023438 -1.75 0.991
-0.007812 -1.71875 1.033
0.023438 -1.6875 1.108
0.054688 -1.65625 1.123
0.054688 -1.6875 1.47
0.070313 -1.6875 1.725
0.09375 -1.90625 1.661
-0.15625 -1.65625 1.194
-0.171875 -1.625 1.187
-0.304687 -1.625 1.363
-0.414062 -1.65625 1.575
-0.367187 -1.625 1.707
-0.46875 -1.5625 1.84
-0.453125 -1.5625 1.883
-0.476562 -1.46875 1.885
-0.320312 -1.53125 1.777
0.085938 -1.65625 0.97
0.445313 -1.78125 0.929
0.492188 -1.8125 1.091
0.546875 -1.9375 1.252
0.40625 -1.875 1.304
0.34375 -1.875 1.366
0.25 -1.78125 1.368
0.242188 -1.875 0.748
0.4375 -1.96875 0.634
0.570313 -1.90625 0.574
0.734375 -1.90625 0.316
1.00781 -1.875 0.176
0.984375 -1.875 0.211
1.55469 -1.78125 0.054
1.70312 -1.78125 0.001
1.625 -1.96875 0.092
1.6875 -1.96875 0.15
1.79688 -1.90625 0.368
1.92188 -1.78125 0.41
1.92188 -1.6875 0.549
1.91406 -1.65625 0.542
1.92188 -1.59375 0.609
1.92969 -1.59375 0.654
1.96094 -1.625 0.657
1.71875 -1.96875 0.423
1.6875 -1.90625 0.735
1.26562 -1.75 0.079
1.07031 -1.78125 0.284
1.05469 -1.71875 0.354
0.796875 -1.59375 0.467
0.773438 -1.59375 0.545
0.65625 -1.46875 0.643
0.601563 -1.5 0.688
0.5 -1.4375 0.763
0.476563 -1.375 0.79
0.34375 -1.3125 0.91
0.390625 -1.3125 1.133
0.375 -1.28125 1.176
0.4375 -1.1875 1.333
0.335938 -1.0625 1.367
0.460938 -1.15625 1.391
0.445313 -1.15625 1.537
0.359375 -1.0625 1.64
0.414063 -0.875 1.772
0.304688 -1.09375 1.686
0.265625 -1.15625 1.67
0.460938 -1.1875 1.556
0.492188 -1.15625 1.705
0.4375 -1.125 1.835
0.367188 -1.0625 1.883
0.304688 -1.03125 1.995
0.234375 -1 2.03
0.304688 -0.90625 2.054
0.289063 -1.0625 2.141
0.21875 -1.1875 2.205
0.328125 -1.03125 2.176
0.304688 -1 2.227
0.328125 -1 2.249
0.304688 -0.9375 2.444
0.28125 -1.03125 2.629
0.210938 -0.8125 2.421
0.226563 -0.78125 2.399
0.140625 -0.625 2.398
0.179688 -0.59375 2.52
0.132813 -0.625 2.731
0.367188 -0.9375 2.167
0.257813 -1.09375 1.918
0.664063 -1.34375 2.051
0.65625 -1.25 2.181
0.679688 -1.25 2.245
0.71875 -1.21875 2.283
0.5 -1.09375 1.556
0.5625 -1.09375 1.549
0.25 -1.28125 0.907
0.1875 -1.1875 0.954
0.15625 -1.1875 1.07
0.085938 -1.1875 1.095
0.0625 -1.125 1.224
0.039063 -1.15625 1.293
0.085938 -1.15625 1.409
0.054688 -1.1875 1.619
-0.101562 -1.375 1.637
-0.085937 -1.40625 1.768
-0.054687 -1.5 1.805
-0.0625 -1.59375 1.849
-0.007812 -1.65625 1.819
0.070313 -1.84375 1.922
0.054688 -1.75 2.116
0.023438 -1.6875 2.213
-0.164062 -1.5625 1.844
0.210938 -1.125 1.647
-0.046875 -1.125 1.297
-0.0625 -1.0625 1.309
-0.007812 -1.03125 1.373
0.039063 -1.03125 1.408
0.015625 -1 1.486
0.03125 -0.96875 1.531
0.09375 -0.84375 1.524
0.15625 -0.8125 1.71
0.226563 -0.8125 1.932
0.234375 -0.75 1.976
0.21875 -0.71875 1.971
0.234375 -0.8125 1.985
0.265625 -0.75 2.084
0.148438 -0.71875 1.468
0.179688 -0.46875 1.377
0.09375 -0.28125 1.444
0.070313 -0.6875 1.649
0.046875 -0.625 1.643
-0.007812 -0.71875 1.853
-0.015625 -0.75 2
-0.085937 -0.59375 1.962
-0.078125 -0.5625 1.97
0.203125 -0.8125 1.483
0.257813 -0.8125 1.554
0.203125 -0.78125 1.47
0.007813 -0.96875 1.744
0.03125 -1 1.932
0.0625 -1.03125 1.963
0.078125 -1.03125 1.947
0.085938 -1.09375 1.935
-0.101562 -0.9375 2.186
-0.148437 -0.96875 2.323
-0.132812 -1 2.348
-0.15625 -1 1.334
-0.203125 -0.9375 1.346
-0.296875 -0.9375 1.329
-0.320312 -0.875 1.418
-0.265625 -0.84375 1.342
-0.273437 -0.8125 1.397
-0.140625 -1.0625 1.377
-0.210937 -1.09375 1.462
-0.335937 -1.09375 1.571
-0.257812 -1.15625 1.633
-0.1875 -1.03125 1.468
-0.34375 -1 1.54
0.6875 -1.4375 0.707
0.6875 -1.40625 0.792
0.65625 -1.4375 0.804
0.570313 -1.3125 0.794
0.578125 -1.25 0.818
0.554688 -1.1875 0.722
0.46875 -0.875 0.707
0.34375 -0.71875 0.713
0.3125 -0.59375 0.748
0.242188 -0.59375 0.909
0.351563 -0.5625 0.785
0.351563 -0.5 0.784
0.234375 -0.4375 0.951
0.203125 -0.40625 0.945
0.195313 -0.34375 0.956
0.179688 -0.375 1.142
0.734375 -1.40625 0.861
0.984375 -1.625 0.603
0.914063 -1.59375 0.624
1.57031 -1.8125 -0.406
1.47656 -1.78125 -0.304
1.41406 -1.625 -0.197
1.47656 -1.5625 0.012
1.51562 -1.53125 0.038
1.57031 -1.4375 0.017
1.54688 -1.46875 0.115
1.53125 -1.4375 0.226
1.59375 -1.40625 0.158
1.59375 -1.4375 0.22
1.78906 -1.28125 0.308
1.88281 -1.40625 0.485
1.85938 -1.40625 0.556
1.79688 -1.46875 0.588
1.64062 -1.5625 0.62
1.58594 -1.34375 0.147
1.48438 -1.53125 0.056
1.5 -1.53125 0.125
1.32812 -1.59375 0.305
1.53125 -1.625 0.607
1.38281 -1.4375 0.076
1.44531 -1.34375 0.229
1.375 -1.0625 0.288
1.42188 -1 0.358
1.40625 -0.96875 0.318
1.47656 -0.9375 0.338
1.42188 -0.8125 0.468
1.45312 -0.6875 0.522
1.42188 -0.59375 0.716
1.46875 -0.5 0.733
1.44531 -0.46875 0.751
1.51562 -0.375 0.738
1.45312 -0.375 0.669
1.46094 -0.28125 0.655
1.55469 -0.03125 0.632
1.58594 0.03125 0.688
1.61719 0.03125 0.7
1.64844 0.125 0.706
1.73438 0.15625 0.704
1.78906 0.15625 0.895
1.72656 0.28125 0.759
1.70312 0.25 0.577
1.70312 0.21875 0.52
1.65625 0.15625 0.52
1.71094 0.15625 0.515
1.67188 0.21875 0.848
1.375 -0.15625 0.433
1.40625 -0.15625 0.748
1.39844 -0.03125 0.785
1.40625 0.21875 1.094
1.41406 0.1875 1.14
1.49219 -0.34375 0.848
1.54688 -0.25 0.858
1.60156 -0.1875 0.772
1.48438 -0.21875 0.957
1.32812 -0.5625 0.986
1.375 -0.46875 0.605
1.25781 -1.3125 0.417
1.24219 -1.28125 0.571
1.11719 -1.1875 0.566
1.125 -1.15625 0.627
1.05469 -1.15625 0.745
1.03125 -1.03125 0.871
0.976563 -1.125 0.973
0.8125 -1.28125 1.047
0.5625 -1.28125 1.072
0.710938 -1.40625 1.228
0.648438 -1.40625 1.274
0.765625 -1.375 1.26
0.695313 -1.34375 1.287
0.585938 -1.3125 1.42
0.4375 -1.375 1.517
0.226563 -1.5 1.808
0.859375 -1 1.215
0.851563 -1.03125 1.229
0.976563 -1.15625 0.707
0.890625 -1.15625 0.782
1.25 -1.25 0.646
1.13281 -1.15625 0.768
1.19531 -1.09375 0.83
1.20312 -1.0625 0.921
1.17188 -1.0625 0.819
1.07812 -0.9375 0.888
0.9375 -0.8125 1.092
0.929688 -0.8125 1.206
0.828125 -0.71875 1.342
0.796875 -0.6875 1.436
1.0625 -0.65625 1.521
0.773438 -0.625 1.51
0.757813 -0.5625 1.725
0.71875 -0.59375 1.829
0.609375 -0.53125 2.012
0.640625 -0.5625 2.151
0.851563 -0.59375 2.034
0.648438 -0.71875 1.922
0.632813 -0.75 1.978
0.828125 -0.96875 2.18
0.929688 -1.0625 2.357
0.960938 -1 2.469
0.882813 -1.03125 2.52
0.835938 -1.03125 2.595
0.835938 -0.90625 2.689
0.984375 -0.9375 2.612
1.03906 -0.875 2.808
0.890625 -0.9375 2.463
0.875 -0.84375 2.499
0.835938 -0.9375 2.465
1.0625 -1.03125 2.539
1.04688 -1.03125 2.633
0.726563 -0.4375 1.876
0.679688 -0.4375 1.955
0.671875 -0.28125 2.007
0.6875 -0.28125 2.066
0.703125 -0.1875 2.063
0.601563 -0.4375 2.109
0.539063 -0.40625 2.147
0.546875 -0.375 2.352
0.5625 -0.5 2.15
0.460938 -0.5 2.265
0.539063 -0.5625 2.399
0.507813 -0.59375 2.494
0.828125 -0.46875 1.98
0.945313 -0.75 1.814
1.07812 -0.9375 1.264
1.19531 -0.8125 1.323
1.29688 -1.21875 0.51
1.32812 -1.125 0.504
1.35156 -1.09375 0.62
1.50781 -0.96875 0.648
1.625 -0.90625 0.841
1.66406 -0.8125 0.941
1.63281 -0.75 0.952
1.6875 -0.75 1.078
1.70312 -0.6875 1.116
1.66406 -0.78125 1.118
1.55469 -0.71875 1.216
1.67188 -0.6875 1.083
1.64062 -0.59375 1.148
1.63281 -0.5 1.023
1.5625 -0.5625 1.293
1.46094 -0.5 1.346
1.54688 -0.59375 1.328
1.72656 -0.65625 1.07
1.75781 -0.59375 1.111
1.75 -0.59375 1.138
1.78906 -0.53125 1.198
1.78906 -0.5 1.213
1.82812 -0.46875 1.253
1.82031 -0.4375 1.263
1.8125 -0.4375 1.375
1.8125 -0.40625 1.382
1.85156 -0.375 1.475
1.84375 -0.375 1.535
1.82812 -0.40625 1.581
1.60938 -0.375 1.74
1.625 -0.53125 1.706
1.53906 -0.59375 1.813
1.57812 -0.59375 1.688
1.875 -0.28125 1.781
1.79688 -0.3125 2.051
1.58594 -0.46875 1.684
1.92188 -0.375 1.474
1.86719 -0.4375 1.38
1.53125 -0.875 1.125
1.45312 -0.8125 1.203
1.48438 -0.78125 1.209
1.48438 -0.75 1.249
1.48438 -0.75 1.34
1.4375 -0.75 1.425
1.26562 -0.8125 1.373
1.1875 -0.8125 1.504
0.984375 -1.03125 1.793
0.90625 -1.15625 1.934
0.914063 -1.21875 2.063
0.960938 -1.3125 2.073
0.992188 -1.21875 2.166
1.21875 -0.75 1.703
1.22656 -0.71875 1.73
1.08594 -0.8125 2.039
1.24219 -0.75 2.046
1.24219 -0.65625 2.106
1.16406 -0.65625 2.191
1.14844 -0.65625 2.238
1.09375 -0.75 2.295
1.17188 -0.6875 2.515
1.10938 -0.6875 2.74
1.16406 -0.71875 2.878
1.1875 -0.53125 2.298
1.23438 -0.46875 2.438
1.28906 -0.53125 2.567
1.125 -0.3125 2.273
1.03125 -0.5 2.381
1.28906 -0.6875 2.156
1.29688 -0.65625 2.244
1.32812 -0.59375 2.275
1.25781 -0.75 2.25
1.34375 -0.625 2.216
1.27344 -0.59375 2.142
1.49219 -0.6875 1.379
1.52344 -0.6875 1.375
1.51562 -0.65625 1.382
1.48438 -0.5 1.616
1.54688 -0.4375 1.696
1.48438 -0.40625 1.789
1.52344 -0.34375 1.871
1.41406 -0.4375 2.115
1.39062 -0.5625 2.269
1.36719 -0.40625 1.818
1.16406 -0.34375 1.861
1.69531 -0.96875 0.938
1.79688 -0.8125 1.003
1.82812 -0.78125 1.035
1.85156 -0.75 1.054
1.86719 -0.6875 1.074
1.90625 -0.65625 1.122
1.95312 -0.65625 1.2
1.86719 -0.59375 1.308
1.89062 -0.59375 1.475
1.9375 -0.53125 1.579
1.57812 -1 0.913
1.53906 -1.03125 0.983
1.5625 -0.96875 1.146
1.63281 -1.03125 0.96
1.67188 -1.09375 1.074
1.26562 -0.96875 0.777
1.17969 -0.875 0.827
1.15625 -0.8125 0.78
1.17969 -0.78125 0.632
1.17969 -0.78125 0.804
1.0625 -0.65625 0.785
1.08594 -0.625 0.752
1.05469 -0.375 0.525
1.05469 -0.625 0.838
1.08594 -0.59375 0.913
1.13281 -0.40625 1.045
1.07812 -0.40625 1.118
1.14062 -0.34375 1.117
1.0625 -0.3125 1.228
0.9375 -0.28125 1.225
0.875 -0.21875 1.366
1.17188 -0.28125 1.137
1.19531 -0.28125 1.244
1.24219 -0.25 1.38
1.29688 -0.15625 1.409
1.07812 -0.21875 1.47
1.00781 -0.125 1.449
1.21094 -0.21875 1.253
1.17188 -0.1875 1.241
1.17969 -0.03125 1.266
1.19531 0 1.329
1.21094 0.0625 1.56
0.960938 -0.21875 0.937
1.05469 -0.5625 0.843
1.0625 -0.28125 0.635
1.67969 -1.875 -0.382
1.79688 -1.96875 -0.153
1.89844 -1.84375 -0.046
1.94531 -1.84375 0.162
1.83594 -2 -0.054
1.24219 -2.125 -0.72
1.30469 -2.21875 -0.555
1.17188 -2.28125 -0.348
1.28125 -2.34375 -0.26
1.1875 -2.53125 -0.244
1.15625 -2.59375 -0.262
1.125 -2.5625 -0.063
1.08594 -2.65625 -0.074
1 -2.84375 0.03
0.960938 -3 0.114
0.757813 -2.96875 0.155
0.71875 -2.9375 0.206
0.710938 -2.96875 0.219
0.65625 -3.09375 0.38
0.632813 -3.1875 0.379
0.585938 -3.125 0.394
0.523438 -3.21875 0.441
0.460938 -3.3125 0.471
0.398438 -3.40625 0.562
0.359375 -3.375 0.572
0.28125 -3.4375 0.727
0.273438 -3.625 0.827
0.328125 -3.5 0.885
0.640625 -3.0625 0.42
0.703125 -3.0625 0.455
0.65625 -3.125 0.476
0.664063 -3.0625 0.599
0.625 -3.125 0.485
0.53125 -3.03125 0.426
0.445313 -3.09375 0.417
0.5 -3.0625 0.525
0.453125 -3.0625 0.464
0.351563 -3.125 0.497
0.3125 -3.125 0.5
1.375 -2.40625 -0.134
1.52344 -2.46875 -0.036
1.61719 -2.46875 -0.063
1.6875 -2.5 0.033
1.82812 -2.53125 -0.07
1.6875 -2.71875 0.017
1.84375 -2.5625 0.109
1.83594 -2.53125 0.175
1.94531 -2.625 0.197
2.17188 -2.4375 0.125
1.66406 -2.4375 0.118
1.69531 -2.46875 0.248
1.82031 -2.53125 0.285
1.89844 -2.40625 0.413
1.92969 -2.4375 0.486
2.125 -2.53125 0.653
2.13281 -2.5625 0.644
2.30469 -2.5625 0.7
2.28125 -2.625 0.836
2.39844 -2.6875 0.969
2.46875 -2.6875 1.057
2.54688 -2.75 0.997
2.47656 -2.71875 1.096
2.23438 -2.5625 0.882
2.48438 -2.625 0.698
2.38281 -2.4375 0.65
2.45312 -2.53125 0.832
2.48438 -2.53125 0.933
1.84375 -2.5 0.634
1.88281 -2.46875 0.869
1.92188 -2.5625 0.899
1.96094 -2.65625 1.03
2.14844 -2.5625 1.191
2.11719 -2.53125 1.338
2.14844 -2.4375 1.442
2.30469 -2.5 1.521
2.16406 -2.6875 1.26
2.21875 -2.6875 1.368
2.23438 -2.6875 1.463
2.29688 -2.65625 1.559
2.10156 -2.65625 1.759
2.13281 -2.65625 1.92
2.42969 -2.5625 1.596
2.50781 -2.40625 1.62
2.625 -2.25 1.584
2.48438 -2.28125 1.764
2.45312 -2.5625 1.514
2.27344 -2.53125 1.634
2.28906 -2.53125 1.814
2.41406 -2.5625 2.002
2.34375 -2.71875 1.561
2.52344 -2.65625 1.571
2.58594 -2.625 1.639
2.64062 -2.53125 1.745
2.69531 -2.53125 1.804
2.6875 -2.5 1.883
2.79688 -2.4375 1.912
2.76562 -2.53125 1.901
2.75 -2.5625 1.991
2.85938 -2.59375 2.065
2.89844 -2.5625 2.165
2.875 -2.5625 2.289
2.9375 -2.78125 2.472
2.84375 -2.625 2.175
2.9375 -2.5625 2.082
3.125 -2.65625 1.965
2.94531 -2.53125 2.056
2.90625 -2.625 2.181
2.82031 -2.6875 2.038
2.72656 -2.59375 1.907
2.71094 -2.65625 1.889
2.65625 -2.78125 1.704
2.32812 -2.75 1.613
2.24219 -2.84375 1.615
2.46875 -2.84375 1.806
2.54688 -2.9375 1.818
2.45312 -2.84375 1.872
2.57031 -2.90625 1.949
2.67188 -2.8125 1.939
2.60156 -2.84375 2.177
2.54688 -2.75 2.367
2.39844 -2.9375 1.988
2.38281 -2.96875 2.017
2.35938 -2.9375 1.914
2.53125 -2.75 1.776
2.08594 -2.46875 1.228
2.10938 -2.46875 1.28
2.15625 -2.40625 1.294
2.16406 -2.28125 1.358
2.14844 -2.25 1.397
2.19531 -2.21875 1.56
2.21094 -2.21875 1.715
2.26562 -2.15625 1.836
2.30469 -2.125 1.897
2.35938 -2.0625 1.977
2.41406 -2.09375 2.045
2.25781 -2.03125 2.091
2.35156 -1.96875 2.274
2.35156 -1.9375 2.49
2.375 -1.875 2.604
2.53125 -1.9375 2.634
2.41406 -1.8125 2.655
2.40625 -1.75 2.639
2.44531 -1.71875 2.737
2.46875 -1.6875 2.575
2.375 -1.71875 2.649
2.45312 -1.5625 2.651
2.14062 -1.65625 2.821
2.38281 -1.84375 2.821
2.46094 -1.78125 2.801
2.34375 -1.8125 2.48
2.22656 -1.78125 2.561
2.4375 -2.09375 2.379
2.46875 -2.0625 2.45
2.46875 -2.03125 2.667
2.49219 -1.96875 2.739
2.5 -2.03125 2.424
2.625 -1.78125 2.48
2.6875 -1.71875 2.473
2.69531 -1.71875 2.484
2.82031 -1.6875 2.549
2.61719 -1.78125 2.402
2.64844 -1.78125 2.367
2.64844 -1.6875 2.452
2.61719 -1.75 2.356
2.17969 -2.125 2.265
2.23438 -2.0625 2.323
2.42188 -2.28125 1.952
2.17969 -2.3125 2.035
2.21094 -2.375 2.051
2.29688 -2.4375 2.101
2.32031 -2.4375 2.089
2.39062 -2.40625 2.185
2.34375 -2.375 2.311
2.42969 -2.46875 2.422
2.44531 -2.40625 2.618
2.53906 -2.46875 2.689
2.59375 -2.46875 2.683
2.53906 -2.5 2.666
2.46875 -2.34375 2.622
2.5 -2.28125 2.643
2.53125 -2.25 2.668
2.54688 -2.21875 2.774
2.39062 -2.21875 2.984
2.30469 -2.3125 3.117
2.57031 -2.1875 2.671
2.57031 -2.15625 2.736
2.63281 -2.125 2.686
2.69531 -2.03125 2.64
2.71875 -2.0625 2.772
2.64062 -2.25 2.729
2.69531 -2.28125 2.803
2.72656 -2.28125 2.924
2.78125 -2.1875 3.001
2.82031 -2.15625 3.098
2.82031 -2.3125 3.023
2.86719 -2.375 3.069
2.67188 -2.1875 2.818
2.48438 -2.3125 2.704
2.5625 -2.40625 2.661
2.63281 -2.40625 2.72
2.65625 -2.34375 2.809
2.75781 -2.4375 2.95
2.73438 -2.53125 3
2.71875 -2.5625 2.974
2.67188 -2.625 2.938
2.74219 -2.46875 3.12
2.57031 -2.46875 3.266
2.76562 -2.5 3.197
2.64844 -2.34375 2.702
2.60156 -2.40625 2.59
2.60938 -2.34375 2.558
2.5 -2.59375 2.372
2.58594 -2.65625 2.384
2.67188 -2.65625 2.455
2.5 -2.6875 2.426
2.58594 -2.71875 2.538
2.57031 -2.71875 2.757
2.45312 -2.6875 2.361
2.28125 -2.4375 2.439
2.28125 -2.3125 2.559
2.19531 -2.21875 2.563
2.09375 -2.28125 2.744
2.32812 -2.25 2.608
2.29688 -2.1875 2.644
2.21094 -2.1875 2.777
2.28906 -2.375 2.91
2.1875 -2.125 2.646
2.3125 -2.46875 2.083
2.25 -2.53125 2.089
2.125 -2.75 2.2
2.29688 -2.53125 2.153
2.23438 -2.59375 2.347
2.24219 -2.625 2.359
2.3125 -2.6875 2.574
2.26562 -2.75 2.545
1.99219 -2.59375 2.455
2 -2.375 1.85
1.96875 -2.71875 1.302
2.00781 -2.625 1.361
2.03125 -2.5625 1.655
1.92188 -2.5625 1.793
2.01562 -2.59375 0.921
2.22656 -2.71875 0.991
2.3125 -2.71875 1.23
2.20312 -2.3125 0.61
2.25 -2.25 0.739
2.3125 -2.21875 0.707
2.34375 -2.125 0.855
2.39062 -2.0625 0.958
2.39844 -2 1.054
2.41406 -2.0625 1.382
2.48438 -2.15625 0.856
2.53906 -2.15625 0.901
1.19531 -2.28125 0.225
1.1875 -2.46875 0.3
1.14844 -2.46875 0.47
1.10156 -2.59375 0.55
1.03906 -2.6875 0.763
1.07812 -2.65625 0.948
1.03906 -2.6875 1.023
0.882813 -2.75 0.85
1.00781 -2.78125 0.882
0.96875 -2.84375 0.866
0.828125 -2.9375 0.864
1.03906 -3 1.1
1.1875 -2.96875 1.166
0.929688 -3.0625 1.123
1.04688 -2.53125 0.816
1.10938 -2.8125 0.719
0.851563 -2.4375 0.475
0.835938 -2.46875 0.556
0.773438 -2.46875 0.609
0.617188 -2.53125 0.76
0.523438 -2.5625 0.796
0.476563 -2.53125 0.776
0.484375 -2.40625 0.737
0.375 -2.34375 0.646
0.382813 -2.65625 0.681
0.578125 -2.5 0.826
0.5 -2.53125 0.966
0.445313 -2.5 0.997
0.382813 -2.5625 1.026
0.320313 -2.6875 1.055
0.390625 -2.90625 1.178
0.414063 -2.96875 1.251
0.398438 -3.09375 1.301
0.445313 -3.09375 1.57
0.421875 -3.09375 1.626
0.375 -3.1875 1.319
0.375 -3.28125 1.472
0.523438 -3.3125 1.475
0.328125 -3.28125 1.498
0.3125 -3.375 1.473
0.296875 -3.375 1.54
0.1875 -3.53125 1.692
0.195313 -3.5625 1.536
0.132813 -3.59375 1.635
-0.007812 -3.5 1.642
-0.046875 -3.53125 1.739
-0.039062 -3.6875 1.633
0.03125 -3.84375 2.045
-0.335937 -3.875 1.855
0.015625 -3.59375 1.525
0.351563 -3 1.175
0.359375 -3.15625 1.055
0.34375 -2.53125 1.11
0.429688 -2.46875 1.294
0.5 -2.3125 1.29
0.46875 -2.40625 1.506
0.59375 -2.46875 1.505
0.429688 -2.40625 1.526
0.460938 -2.34375 1.61
0.351563 -2.5 1.814
0.34375 -2.5625 1.948
0.320313 -2.6875 2.134
0.335938 -2.28125 1.653
0.273438 -2.40625 1.814
0.265625 -2.40625 1.903
0.210938 -2.34375 2.075
0.359375 -2.1875 2.137
0.328125 -2.09375 2.195
0.210938 -2.15625 2.219
0.257813 -2.125 2.149
0.171875 -2.4375 2.044
0.101563 -2.40625 2.082
0.054688 -2.625 2.267
-0.007812 -2.3125 2.145
0.039063 -2.3125 2.248
0.140625 -2.28125 2.324
-0.054687 -2.34375 2.249
-0.039062 -2.40625 2.251
0.03125 -2.21875 2.247
0.09375 -2.0625 2.407
0.1875 -2.53125 2.327
0.101563 -2.59375 2.411
0.078125 -2.625 2.498
0.109375 -2.65625 2.505
0.117188 -2.625 2.367
0.070313 -2.6875 2.432
0.078125 -2.71875 2.424
0.109375 -2.53125 2.441
0.140625 -2.53125 2.532
0.304688 -2.5625 2.637
0.398438 -2.5 2.673
0.4375 -2.46875 2.96
0.4375 -2.375 3.16
0.40625 -2.5 2.61
0.234375 -2.5625 1.248
0.171875 -2.65625 1.31
0.054688 -2.75 1.474
0.09375 -2.875 1.465
0.007813 -2.96875 1.531
-0.09375 -3.15625 1.572
-0.148437 -3.25 1.645
-0.164062 -3.21875 1.528
-0.078125 -3.125 1.649
-0.078125 -3.28125 1.708
-0.125 -3.1875 1.747
-0.265625 -3.25 1.767
-0.234375 -3.34375 1.858
-0.234375 -3.375 1.799
-0.023437 -3.21875 1.797
0.101563 -3.21875 1.836
0.039063 -2.96875 1.595
-0.085937 -2.875 1.745
0.140625 -2.53125 1.365
0.179688 -2.5 1.449
0.046875 -2.375 1.492
0.117188 -2.59375 1.497
0.085938 -2.65625 1.577
0.0625 -2.5625 1.918
0.859375 -2.4375 0.846
0.914063 -2.46875 0.941
0.882813 -2.625 1.028
0.828125 -2.65625 1.102
0.757813 -2.5 1.315
0.695313 -2.4375 1.505
0.640625 -2.4375 1.643
0.5625 -2.5625 1.926
0.789063 -2.75 1.17
0.789063 -2.75 1.205
0.671875 -2.71875 1.366
0.679688 -2.96875 1.514
0.59375 -3.09375 1.74
0.570313 -3.09375 1.85
0.601563 -3.1875 2.011
0.664063 -3.28125 2.172
0.679688 -3.25 2.225
0.695313 -3.0625 1.884
0.664063 -2.9375 1.919
0.679688 -2.875 2.133
0.5625 -3.15625 2.023
0.71875 -2.84375 1.802
0.5625 -2.75 1.432
0.382813 -2.78125 1.597
0.328125 -2.8125 1.805
0.328125 -2.96875 1.889
0.390625 -3.15625 1.9
0.296875 -2.9375 1.958
0.25 -2.875 2
0.101563 -3 2.196
0.210938 -2.75 2.147
0.101563 -2.84375 2.318
-0.03125 -2.84375 2.43
-0.070312 -2.9375 2.433
0.101563 -2.90625 2.261
0.03125 -3 2.393
-0.046875 -2.96875 2.39
-0.09375 -3.0625 2.429
0.390625 -2.8125 2.188
0.421875 -3.03125 1.994
0.375 -3.09375 2.167
0.367188 -3.15625 2.291
0.4375 -3.09375 2.285
0.421875 -3.0625 2.366
0.492188 -3.03125 2.404
0.460938 -3.03125 2.469
0.492188 -3 2.612
0.546875 -2.9375 2.386
0.617188 -3 2.44
0.59375 -2.90625 2.524
0.59375 -2.875 2.519
0.65625 -2.8125 2.615
0.6875 -2.78125 2.749
0.726563 -2.71875 2.818
0.375 -3.09375 2.401
0.382813 -3.09375 2.437
0.09375 -3.15625 2.781
0.453125 -3 2.288
0.335938 -3.1875 2.269
0.265625 -3.25 2.344
0.453125 -2.9375 2.205
0.171875 -2.8125 1.961
1 -2.40625 0.967
0.984375 -2.3125 0.977
0.765625 -2.1875 1.012
0.828125 -2.1875 1.161
0.789063 -2.21875 1.191
0.789063 -2.21875 1.32
0.75 -2.1875 1.323
0.84375 -2.125 1.176
0.804688 -2.09375 1.265
0.9375 -2.40625 1.215
0.914063 -2.34375 1.266
0.945313 -2.34375 1.371
0.8125 -2.375 1.566
0.734375 -2.375 1.727
0.820313 -2.3125 1.853
0.609375 -2.1875 1.961
0.601563 -2.40625 1.943
0.554688 -2.5 1.988
0.554688 -2.28125 2.045
0.492188 -2.21875 2.092
0.59375 -2.21875 2.109
0.554688 -2.1875 2.175
0.679688 -2.40625 1.965
0.710938 -2.375 2.082
1.04688 -2.53125 1.462
1.0625 -2.59375 1.494
1.03125 -2.625 1.466
1.20312 -2.78125 1.543
0.664063 -2.59375 0.782
0.734375 -2.59375 0.862
0.765625 -2.59375 0.909
0.859375 -2.65625 1.011
0.875 -2.5625 0.96
1.30469 -2.5 0.069
1.33594 -2.59375 0.25
1.32812 -2.5 0.55
1.375 -2.375 0.719
1.44531 -2.34375 1.046
1.39062 -2.3125 1.178
1.45312 -2.25 1.237
1.4375 -2.25 1.321
1.53125 -2.4375 1.496
1.55469 -2.4375 1.728
1.625 -2.375 1.751
1.875 -2.34375 1.776
1.55469 -2.5625 1.691
1.60938 -2.5625 1.776
1.63281 -2.625 1.777
1.46094 -2.84375 1.854
1.57031 -2.53125 1.898
1.57812 -2.46875 2.051
1.64844 -2.53125 2.158
1.75 -2.59375 2.19
1.80469 -2.65625 2.087
1.80469 -2.625 2.058
1.74219 -2.71875 2.166
1.69531 -2.78125 2.157
1.70312 -2.875 2.27
1.44531 -2.90625 2.353
1.57812 -2.96875 2.434
1.85938 -2.875 2.535
1.86719 -2.84375 2.628
1.90625 -2.75 2.691
1.66406 -2.9375 2.213
1.55469 -2.4375 2.071
1.59375 -2.375 2.125
1.59375 -2.4375 2.306
1.5625 -2.5 2.404
1.41406 -2.46875 2.413
1.39844 -2.4375 2.513
1.46094 -2.40625 2.626
1.46094 -2.625 2.525
1.27344 -2.84375 2.452
1.61719 -2.375 2.458
1.77344 -2.375 2.466
1.88281 -2.28125 2.539
1.60938 -2.3125 2.5
1.64844 -2.28125 2.567
1.55469 -2.25 2.743
1.46094 -2.375 2.863
1.625 -2.25 2.793
1.58594 -2.21875 2.917
1.65625 -2.15625 2.963
1.63281 -2.28125 2.913
1.67188 -2.4375 3.022
1.71094 -2.375 3.14
1.91406 -2.4375 3.423
1.83594 -2.4375 3.546
1.625 -2.21875 3.421
1.67969 -2.53125 3.011
1.76562 -2.625 3.146
1.54688 -2.3125 2.923
1.39062 -2.375 3.037
1.21875 -2.4375 3.108
1.10156 -2.3125 3.306
1.17188 -2.25 3.314
1.00781 -2.375 3.447
0.953125 -2.4375 3.494
0.789063 -2.5 3.606
0.765625 -2.59375 3.518
0.90625 -2.28125 3.564
0.898438 -2.28125 3.576
0.867188 -2.34375 3.693
0.921875 -2.28125 3.786
0.914063 -2.1875 3.988
0.867188 -2.25 4.064
0.828125 -2.28125 3.763
0.960938 -2.1875 3.493
0.890625 -2 3.667
1.51562 -2.46875 2.976
1.67188 -2.375 2.636
1.75781 -2.40625 2.609
1.75 -2.5625 2.613
1.77344 -2.65625 2.842
1.8125 -2.65625 2.846
1.72656 -2.59375 2.608
1.67969 -2.6875 2.832
1.72656 -2.75 2.851
1.65625 -2.75 2.646
1.64062 -2.5625 2.873
1.67188 -2.5625 2.903
1.75 -2.59375 2.893
1.625 -2.625 2.874
1.79688 -2.375 2.874
1.8125 -2.5 2.942
1.85938 -2.625 2.997
1.92188 -2.71875 3.065
2.03125 -2.6875 3.182
1.75 -2.53125 2.958
1.82812 -2.34375 2.86
1.71875 -2.15625 2.713
1.75 -2 2.875
1.50781 -2.1875 2.639
1.42188 -2.125 2.778
1.30469 -2.28125 2.838
1.07031 -2.3125 2.805
1 -2.40625 2.82
0.992188 -2.5625 2.849
0.96875 -2.375 2.659
1.19531 -2.40625 2.982
1.14844 -2.28125 2.975
0.914063 -2.21875 3.132
1.11719 -2.375 2.973
1.07812 -2.40625 2.885
1.00781 -2.5 2.99
0.851563 -2.46875 2.961
0.851563 -2.4375 3.151
0.820313 -2.5 3.097
0.789063 -2.5625 3.083
0.828125 -2.59375 3.112
0.90625 -2.34375 3.178
1.04688 -2.53125 2.962
1.05469 -2.625 2.953
1.42969 -2.1875 1.479
1.375 -2.28125 1.548
1.22656 -2.25 1.598
1.42188 -2.3125 1.703
1.22656 -2.3125 1.84
1.20312 -2.28125 1.874
1.47656 -2.15625 1.688
1.53906 -2.1875 1.887
1.73438 -2.25 1.959
1.80469 -2.3125 1.964
1.5625 -2.15625 1.983
1.54688 -2.1875 2.135
1.39062 -2.125 2.19
1.35156 -2.15625 2.269
1.29688 -2.03125 2.322
1.21875 -1.8125 2.361
1.19531 -1.71875 2.446
1.23438 -1.65625 2.49
1.22656 -1.65625 2.515
1.16406 -2.125 2.651
1.19531 -2.1875 2.701
0.960938 -2.3125 2.566
1.51562 -1.9375 2.266
1.57031 -1.9375 2.4
1.48438 -1.96875 2.403
1.61719 -1.8125 2.498
1.57812 -1.78125 2.579
1.60156 -1.65625 2.555
1.64844 -1.84375 2.734
1.67969 -1.84375 2.771
1.67969 -1.84375 2.886
1.73438 -1.78125 2.894
1.57031 -1.84375 2.929
1.8125 -1.8125 2.767
1.92969 -1.78125 2.746
1.97656 -1.71875 2.824
2.03125 -1.65625 2.849
2.05469 -1.78125 2.903
2.01562 -1.6875 3.273
2.03906 -1.84375 2.798
1.83594 -1.90625 2.78
1.52344 -1.875 2.652
1.41406 -1.90625 2.79
1.32031 -1.9375 2.828
1.0625 -1.96875 2.887
1.47656 -1.8125 2.788
1.39844 -1.8125 2.909
1.34375 -1.6875 2.983
1.39844 -1.625 3.049
1.55469 -1.59375 3.059
1.49219 -1.53125 3.199
1.34375 -1.53125 2.984
1.39062 -1.78125 3.051
1.4375 -1.78125 3.232
1.50781 -1.84375 3.367
1.48438 -1.875 3.413
1.58594 -1.78125 3.488
1.39062 -1.71875 3.297
1.39844 -1.65625 3.349
1.46875 -1.59375 3.374
1.44531 -1.59375 3.459
1.35938 -1.75 3.75
1.49219 -1.53125 3.461
1.50781 -1.46875 3.675
1.55469 -1.34375 3.567
1.48438 -1.71875 3.255
1.16406 -1.75 3.128
1.35938 -1.84375 2.902
1.34375 -1.875 2.933
1.57812 -1.9375 2.673
1.64062 -1.9375 2.739
1.65625 -1.6875 2.581
1.6875 -1.625 2.623
1.64062 -1.46875 2.68
1.53906 -2.28125 2.268
1.36719 -2.4375 2.333
1.75 -2 2.296
1.79688 -1.9375 2.326
1.77344 -1.9375 2.405
1.89062 -1.8125 2.57
1.79688 -2 2.498
1.79688 -1.90625 2.316
1.94531 -1.71875 2.371
1.5 -2.09375 1.871
1.375 -1.9375 1.901
1.34375 -1.90625 2.071
1.40625 -1.75 2.148
1.27344 -1.71875 2.341
1.28125 -1.59375 2.444
1.27344 -1.5625 2.411
1.3125 -1.46875 2.428
1.39062 -1.46875 2.411
1.25781 -1.40625 2.417
1.42188 -1.84375 1.925
1.32031 -1.875 1.89
1.24219 -1.8125 1.944
1.40625 -2.34375 0.029
1.32031 -2.28125 0.038
1.35156 -2.09375 0.678
1.39062 -2 0.81
1.35938 -2.0625 0.868
1.41406 -2 1.027
1.42188 -1.90625 1.102
1.45312 -1.9375 1.172
1.25781 -1.9375 1.345
1.22656 -2 1.443
1.17969 -2 1.545
1.17969 -1.9375 1.791
1.05469 -1.875 1.905
0.945313 -1.84375 2.078
0.929688 -1.8125 2.106
0.875 -1.84375 2.166
0.960938 -1.78125 2.33
0.960938 -1.78125 2.432
0.789063 -1.75 2.462
0.796875 -1.625 2.488
0.75 -1.71875 2.521
0.9375 -1.5625 2.499
0.84375 -1.5 2.505
0.945313 -1.25 2.58
1.03125 -1.84375 2.433
1.125 -1.8125 2.504
1.16406 -1.75 2.606
1.22656 -1.78125 2.612
1.28125 -1.75 2.705
1.32812 -1.6875 2.771
0.921875 -1.71875 2.606
0.804688 -1.6875 2.69
0.75 -1.65625 2.757
0.703125 -1.5625 2.711
0.710938 -1.5 2.736
0.640625 -1.375 2.944
0.710938 -1.28125 2.986
0.695313 -1.21875 3.055
0.640625 -1.3125 3.065
0.585938 -1.1875 3.159
0.585938 -1.34375 3.098
0.59375 -1.28125 3.338
0.601563 -1.4375 2.682
0.53125 -1.59375 2.725
0.617188 -1.625 2.877
0.59375 -1.6875 2.884
0.554688 -1.78125 3.059
0.492188 -1.84375 3.085
0.375 -1.75 3.169
0.179688 -1.6875 3.244
0.179688 -1.71875 3.477
0.390625 -1.6875 3.168
0.25 -1.59375 3.202
0.367188 -1.78125 2.955
0.640625 -1.625 2.971
0.726563 -1.71875 3.065
0.671875 -1.75 3.226
0.648438 -1.875 3.354
0.539063 -1.6875 3.606
0.445313 -1.90625 3.478
0.648438 -1.9375 3.309
0.84375 -1.65625 3.06
0.578125 -1.6875 2.846
0.710938 -1.75 2.709
0.648438 -1.84375 2.801
0.75 -1.84375 2.998
0.890625 -1.96875 3.051
0.820313 -2.0625 3.088
0.773438 -1.9375 3.169
0.796875 -2.0625 3.153
0.859375 -1.90625 3.143
0.851563 -1.96875 3.232
0.546875 -1.75 2.767
0.492188 -1.65625 2.782
1 -1.6875 2.625
0.992188 -1.8125 2.897
1.03125 -1.78125 2.985
1.02344 -1.8125 3.061
0.90625 -1.84375 3.164
0.96875 -1.71875 3.131
1.01562 -1.6875 3.193
1.03125 -1.75 3.245
1.03906 -1.78125 3.309
1.14844 -1.84375 3.355
1 -1.65625 3.26
0.96875 -1.625 3.473
0.882813 -1.65625 3.62
1.02344 -1.59375 3.784
0.945313 -1.5625 3.913
1.02344 -1.84375 3.78
0.898438 -1.8125 3.973
1.0625 -1.625 3.281
1.10938 -1.5625 3.345
1.04688 -1.5625 3.255
1.08594 -1.46875 3.322
0.929688 -1.53125 2.662
0.859375 -1.46875 2.718
0.890625 -1.375 2.924
0.867188 -1.40625 2.984
0.914063 -1.34375 3.041
0.890625 -1.34375 3.084
0.757813 -1.3125 3.123
0.6875 -1.21875 3.325
0.609375 -1.1875 3.422
0.898438 -1.28125 3.146
0.929688 -1.34375 3.265
1.03125 -1.40625 3.415
1.10938 -1.375 3.604
1.14062 -1.4375 3.602
1.02344 -1.09375 3.111
0.921875 -1.3125 3.026
0.835938 -1.875 2.573
0.835938 -1.90625 2.701
0.929688 -2.15625 2.765
0.890625 -2.15625 2.792
0.789063 -2.28125 2.864
0.820313 -2.25 2.926
0.796875 -2.21875 3.066
0.78125 -2.15625 3.113
0.625 -2.21875 3.214
0.570313 -2.375 3.473
1.28906 -1.90625 1.631
1.36719 -1.78125 1.809
1.13281 -1.9375 1.419
1.0625 -1.90625 1.507
1.03125 -1.90625 1.597
1.17188 -1.875 1.489
1.10156 -1.84375 1.528
1.09375 -1.84375 1.584
1.14844 -1.71875 1.449
1.23438 -1.5625 1.477
1.125 -1.46875 1.635
0.984375 -1.3125 1.627
1.52344 -1.875 1.28
1.67188 -1.75 1.29
1.67188 -1.6875 1.186
1.58594 -1.59375 1.216
1.73438 -1.625 1.262
1.875 -1.78125 1.457
1.70312 -1.6875 1.483
1.8125 -1.71875 1.702
1.53125 -1.65625 1.566
1.55469 -1.625 1.746
1.42188 -1.375 1.855
1.39844 -1.3125 2.144
1.38281 -1.1875 2.264
1.4375 -1.375 2.245
1.47656 -1.65625 1.794
1.46875 -1.75 1.844
1.46875 -1.65625 1.964
1.4375 -1.75 1.729
1.73438 -1.59375 1.476
1.76562 -1.53125 1.479
1.77344 -1.53125 1.516
1.83594 -1.46875 1.797
1.53125 -1.5625 1.445
1.40625 -1.53125 1.527
1.53125 -2 1.492
1.14062 -2.09375 -0.68
1.19531 -2.09375 -0.551
1.07812 -2.09375 -0.65
1.07031 -2.09375 -0.57
0.945313 -2.0625 -0.58
0.921875 -1.875 -0.521
0.8125 -1.53125 -0.46
0.484375 -1.40625 -0.174
0.351563 -1.21875 -0.035
0.351563 -1.1875 -0.011
0.351563 -1.1875 0.011
0.210938 -1.09375 0.142
0.929688 -2.0625 -0.513
0.875 -2.15625 -0.512
0.8125 -2.3125 -0.148
0.742188 -2.4375 -0.025
0.703125 -2.4375 -0.1
0.585938 -2.4375 -0.028
0.734375 -2.5 -0.089
0.648438 -2.6875 -0.013
0.65625 -2.8125 0.077
0.648438 -2.875 0.029
0.523438 -2.875 0.067
0.75 -2.875 0.172
0.578125 -2.8125 0.183
0.703125 -2.625 0.093
0.65625 -2.65625 0.1
0.710938 -1.9375 -0.348
0.65625 -2.03125 -0.261
0.789063 -2.0625 -0.168
0.804688 -1.8125 -0.2
1.3125 -2.4375 -0.879
1.35156 -2.46875 -0.76
1.25 -2.53125 -0.675
1.35938 -2.53125 -0.313
1.46094 -2.65625 -0.233
1.60156 -2.8125 0.277
1.49219 -2.96875 0.328
1.5 -2.96875 0.447
1.53906 -3.0625 0.539
1.35156 -3.03125 0.35
1.1875 -3.03125 0.383
1.125 -3.125 0.389
1.10938 -3.1875 0.47
1.03906 -3.21875 0.466
0.9375 -3.34375 0.559
0.945313 -3.4375 0.599
0.96875 -3.46875 0.62
1.07812 -3.5 0.772
1.11719 -3.53125 0.768
1.14062 -3.5 0.698
0.929688 -3.46875 0.623
0.84375 -3.46875 0.646
0.804688 -3.5 0.606
0.78125 -3.5625 0.654
0.765625 -3.59375 0.618
0.671875 -3.53125 0.691
0.632813 -3.625 0.722
0.695313 -3.71875 0.75
0.4375 -3.53125 0.723
0.34375 -3.53125 0.87
0.273438 -3.59375 0.954
0.210938 -3.625 0.963
0.226563 -3.65625 1.035
0.179688 -3.75 1.005
0.179688 -3.625 1.113
0.21875 -3.59375 1.161
0.21875 -3.53125 1.193
0.914063 -3.5625 0.649
1.04688 -3.625 0.717
1.08594 -3.59375 0.791
1.04688 -3.65625 0.776
1.05469 -3.84375 0.765
1.10156 -3.84375 0.801
1.10938 -3.875 0.848
1.19531 -3.90625 0.886
1.20312 -3.96875 0.854
1.1875 -4.03125 0.847
0.882813 -3.5 0.736
0.890625 -3.53125 0.769
1.00781 -3.59375 0.821
1.08594 -3.5625 0.855
1.0625 -3.625 0.855
1.01562 -3.71875 1.004
0.953125 -3.8125 1.019
0.96875 -3.75 1.072
1.0625 -3.875 1.08
1.01562 -4 1.17
1 -4 1.373
0.90625 -3.90625 1.627
0.914063 -3.8125 1.194
0.851563 -3.8125 1.195
0.742188 -3.84375 1.213
1.13281 -3.8125 0.986
0.835938 -3.59375 0.878
0.820313 -3.71875 0.984
0.835938 -3.625 1.059
0.75 -3.71875 1.232
0.695313 -3.8125 1.291
0.5 -3.875 1.396
0.414063 -4.03125 1.495
0.4375 -4.125 1.431
0.46875 -4.125 1.546
0.492188 -4.28125 1.61
0.554688 -4.34375 1.775
0.304688 -4 1.991
0.796875 -3.21875 0.474
0.859375 -3.125 0.572
0.820313 -3.15625 0.631
0.914063 -3.125 0.731
0.960938 -3.1875 0.813
0.851563 -3.125 0.781
0.695313 -3.09375 0.821
0.828125 -3.125 0.874
1.125 -3.1875 0.479
1.19531 -3.34375 0.498
1.0625 -3.1875 0.356
1.09375 -3.25 0.385
1.07031 -3.25 0.264
1.67969 -2.875 0.465
1.75781 -2.96875 0.479
1.74219 -2.96875 0.596
1.79688 -2.9375 0.639
1.92188 -2.875 0.597
1.875 -2.96875 0.66
1.94531 -3 0.728
1.95312 -2.75 0.874
1.85156 -3.0625 0.998
2.03906 -3.09375 0.871
2.03906 -3.0625 1.015
1.96875 -3.1875 1.106
2 -3.21875 1.253
2.07812 -3.03125 1.039
2.15625 -3.25 1.005
2.09375 -3.40625 0.951
2.21875 -3.28125 0.95
2.29688 -3.375 0.978
2.32812 -3.46875 1.143
2.22656 -3.28125 1.247
2.24219 -3.25 1.276
2.27344 -3.25 1.355
2.25 -3.3125 1.369
2.23438 -3.34375 1.221
2.33594 -3.34375 1.27
2.09375 -3.03125 0.892
2.30469 -3.03125 1.034
2.52344 -3.09375 1.165
2.625 -3.15625 1.285
2.6875 -3 1.477
2.57031 -3 1.206
2.47656 -2.875 1.095
2.54688 -2.875 1.134
2.64844 -2.84375 1.262
2.70312 -2.71875 1.375
2.83594 -2.8125 1.439
2.8125 -2.78125 1.497
2.86719 -2.78125 1.617
2.75 -2.875 1.653
2.79688 -2.71875 1.607
2.89844 -2.6875 1.48
2.71094 -2.65625 1.553
1.92969 -2.96875 0.616
2.21094 -2.84375 0.659
1.70312 -2.8125 0.732
1.64062 -2.84375 0.784
1.55469 -3.125 0.726
1.58594 -3.15625 0.821
1.59375 -3.21875 0.869
1.60938 -3.1875 0.921
1.71094 -3.3125 0.966
1.67969 -3.375 1.291
1.71094 -3.3125 1.34
1.48438 -3.0625 1.415
1.38281 -2.90625 1.509
1.35156 -3 1.555
1.33594 -2.9375 1.628
1.33594 -2.96875 1.699
1.13281 -2.96875 1.799
1.34375 -2.96875 1.878
1.35156 -3 2.04
1.21094 -2.90625 2.096
1.14062 -2.875 2.217
1.10156 -2.9375 2.355
1.10938 -3 2.466
1.05469 -3.03125 2.474
1 -3.125 2.651
0.875 -3.0625 2.656
0.921875 -3 2.716
0.929688 -3.15625 2.759
0.96875 -3.21875 2.837
0.851563 -3.15625 2.757
0.976563 -3.09375 2.782
1.10938 -2.96875 2.815
1.11719 -2.90625 2.853
1.00781 -3.0625 3.005
0.835938 -3.15625 3.126
0.9375 -3.25 3.286
0.84375 -3.125 3.379
0.851563 -3.15625 3.465
1.09375 -3.03125 2.347
1.07031 -3.09375 2.438
0.96875 -3.21875 2.426
0.984375 -3.25 2.419
0.929688 -3.28125 2.404
0.945313 -2.8125 2.286
0.835938 -2.8125 2.258
0.875 -2.75 2.355
0.921875 -2.75 2.459
0.867188 -2.875 2.258
0.835938 -2.875 2.319
0.90625 -2.78125 2.207
1.42188 -3.125 2.122
1.50781 -3.125 2.176
1.26562 -3.09375 2.044
1.10156 -3.0625 2.04
0.875 -3.21875 2.098
1.24219 -3.09375 2.288
1.26562 -3.0625 2.475
1.33594 -2.96875 2.58
1.3125 -2.9375 2.605
1.28125 -2.875 2.74
1.14844 -2.8125 2.792
1.0625 -2.84375 2.767
1.02344 -2.84375 2.88
1.1875 -2.78125 2.925
1.21094 -2.78125 2.94
1.13281 -2.8125 1.796
1.29688 -3.09375 1.533
1.63281 -3.46875 1.455
1.76562 -3.53125 1.583
1.82812 -3.53125 1.703
1.8125 -3.40625 1.846
1.89062 -3.375 1.942
1.9375 -3.40625 2.004
1.96875 -3.40625 2.072
2.00781 -3.3125 2.15
2.0625 -3.28125 2.148
2.10156 -3.21875 2.238
2.26562 -3.15625 2.408
2.26562 -3.15625 2.42
2.15625 -3.3125 2.428
2.21094 -3.25 2.48
2.33594 -3.28125 2.585
2.4375 -3.28125 2.973
2.1875 -3.28125 2.617
2.22656 -3.15625 2.608
2.26562 -3.09375 2.363
2.32031 -3.09375 2.439
2.29688 -3.03125 2.478
2.16406 -2.96875 2.631
2.01562 -2.9375 2.572
2.21875 -2.9375 2.667
2.19531 -2.875 2.705
2.17188 -2.9375 2.804
2.25 -2.90625 2.974
2.32031 -2.96875 2.998
2.10156 -2.84375 2.765
2.03906 -2.84375 2.777
1.92188 -2.71875 2.805
1.89062 -2.84375 2.812
2.00781 -2.6875 2.79
1.92188 -2.65625 2.8
2.07812 -2.78125 2.88
2.05469 -2.90625 2.791
1.98438 -2.96875 2.766
2.13281 -2.78125 2.868
2.32031 -2.8125 2.793
2.29688 -2.78125 2.878
2.45312 -2.625 3.057
2.36719 -2.875 2.924
2.35156 -2.875 2.977
2.20312 -3.25 2.129
2.02344 -3.46875 2.249
1.9375 -3.4375 2.366
1.91406 -3.3125 2.467
1.92969 -3.3125 2.497
1.82031 -3.3125 2.635
1.76562 -3.15625 2.737
1.8125 -3.09375 2.816
1.78125 -3.03125 2.845
1.71094 -2.9375 2.852
1.64844 -2.875 2.783
1.59375 -3 2.895
1.60156 -2.9375 2.773
1.60938 -2.84375 2.881
1.54688 -2.8125 2.83
1.53906 -2.8125 2.809
1.48438 -2.78125 2.826
1.60156 -2.75 2.907
1.54688 -2.78125 3.082
1.75 -3.09375 2.742
1.75781 -3.0625 2.637
1.74219 -3.03125 2.662
1.8125 -2.96875 2.595
1.83594 -2.90625 2.631
2.05469 -3.4375 2.45
2.10156 -3.40625 2.575
2.13281 -3.375 2.646
2.0625 -3.34375 2.79
2 -3.25 2.876
1.9375 -3.21875 2.931
1.82812 -3.28125 2.911
1.85156 -3.53125 3.08
1.96094 -3.15625 2.936
1.89062 -3.125 2.914
1.92969 -3.09375 3.059
1.84375 -3.09375 3.049
1.77344 -3.03125 3.064
2.07812 -3.46875 3.168
2.05469 -3.53125 2.817
1.98438 -3.65625 2.757
1.91406 -3.5 2.059
1.85156 -3.53125 2.112
1.78125 -3.5 2.248
1.70312 -3.4375 2.344
1.64844 -3.4375 2.467
1.6875 -3.5 2.723
1.5625 -3.46875 2.494
1.52344 -3.625 2.624
1.39844 -3.78125 2.725
1.21875 -3.78125 3.066
1.21875 -3.6875 3.189
1.61719 -3.40625 2.468
1.61719 -3.34375 2.677
1.46875 -3.21875 2.781
1.41406 -3 2.849
1.45312 -3.25 2.951
1.46094 -3.15625 2.973
1.30469 -3.1875 3.391
1.32031 -3.15625 3.64
1.3125 -3.15625 3.644
1.25781 -3 3.406
1.45312 -3.1875 3.42
1.39844 -3.3125 3.53
1.41406 -3.25 3.703
1.28906 -3.15625 4.079
1.47656 -3.09375 3.42
1.35938 -3.15625 2.718
1.38281 -2.9375 2.741
1.44531 -3.25 2.389
1.6875 -3.59375 2.332
1.54688 -3.65625 2.407
1.72656 -3.71875 2.325
1.6875 -3.8125 2.494
1.67969 -3.75 2.564
1.85938 -3.28125 2.119
1.85938 -3.25 2.23
1.875 -3.125 2.255
1.55469 -3.625 1.515
1.3125 -3.59375 1.666
1.22656 -3.71875 1.731
1.14844 -3.6875 1.799
1.19531 -3.75 1.838
1.09375 -3.46875 1.596
1.46875 -3.3125 0.949
1.47656 -3.4375 1.04
1.54688 -3.53125 1.109
1.5 -3.59375 1.16
1.63281 -3.71875 1.374
1.70312 -3.6875 1.455
1.79688 -3.65625 1.489
1.86719 -3.65625 1.542
